202.09 207.42 212.93 219.39 227.10 237.69 248.33 258.99 267.89 277.37 290.14 303.59 320.64 342.13 363.39 387.34 410.00 433.48 458.29 477.92 492.58 507.92 519.31 527.60 533.95 538.46 542.40 544.09 544.98 545.29 544.80 544.02 542.98 541.54 539.28 536.87 532.83 528.31 522.98 518.25 514.67 511.22 507.98 505.16 502.26 498.74 495.18 491.28 487.59 483.65 479.63 442.45 420.62 413.99 407.11 400.30 393.79 387.45 381.25 375.08 368.94 362.92 357.10 351.73 345.24 336.94 328.61 320.96 313.36 306.19 301.41 296.78 292.16 287.53 283.04 278.67 274.28 269.95 265.75 261.57 257.40 253.23 249.09 245.10 241.15 237.19 233.23 228.56 222.77 218.34 214.51 210.77 207.04 203.33 199.64 196.04 192.41 188.79 185.31 181.79 178.29 174.84 171.47 168.25 164.80 160.25 155.20 150.21 145.64 141.10 137.49 134.46 131.54 128.55 125.63 122.80 119.96 117.11 114.35 111.64 108.99 106.40 103.89 101.45 99.06 96.73 94.46 92.18 89.76 86.57 84.17 82.27 80.34 78.56 76.92 75.40 73.84 72.14 70.62 69.29 68.01 66.74 65.49 64.32 63.30 62.15 60.87 59.56 58.40 57.53 56.80 56.24 55.69 55.17 54.74 54.57 54.43 54.16 53.86 53.60 53.53 53.58 53.59 53.60 53.63 53.74 53.92 54.10 54.29 54.71 55.31 55.72 56.00 56.36 56.83 57.29 57.76 58.32 58.91 59.49 60.08 60.66 61.12 61.56 62.07 62.73 63.61 64.50 65.25 66.07 66.92 67.53 68.12 68.69 69.28 69.85 70.43 71.04 71.68 72.32 72.98 73.62 74.21 74.78 75.47 76.24 76.86 77.35 77.74 78.23 78.80 79.06 79.14 79.09 78.98 78.69 78.20 77.75 77.22 76.30 75.17 73.84 72.51 71.46 70.22 69.11 69.31 70.70 74.01 76.52 77.42 78.66 80.03 81.32 82.48 83.56 84.54 85.49 86.36 86.95 87.33 87.53 87.76 88.02 88.21 88.33 88.38 88.44 88.47 88.53 88.71 88.93 89.05 89.11 88.95 88.54 87.87 86.92 85.50 83.90 82.14 80.33 78.11 76.70 75.35 74.43 74.22 74.72 76.36 78.27 82.05 84.59 85.70 86.74 87.69 88.41 88.71 88.73 88.80 88.73 88.43 87.98 87.43 86.66 85.75 84.77 83.77 82.81 81.72 80.49 78.87 77.14 75.95 74.51 73.10 71.86 70.65 69.42 68.10 66.80 65.96 69.12 77.30 86.48 86.99 85.65 82.28 79.91 80.41 81.89 87.92 89.53 84.98 84.84 82.50 78.74 80.14 80.79 79.61 80.52 82.95 84.49 86.99 87.56 87.42 89.77 91.86 92.77 93.34 93.75 93.68 94.69 95.51 95.97 95.90 96.41 96.40 96.07 96.83 97.28 97.25 97.96 98.63 99.49 99.86 100.48 100.39 98.86 99.16 100.62 100.92 102.29 103.50 104.75 105.24 105.78 106.46 106.70 107.00 107.55 108.38 109.10 109.95 110.12 110.61 110.56 110.06 109.56 108.64 108.20 108.05 107.19 107.39 107.58 107.30 107.16 107.09 107.57 107.84 107.32 107.17 107.36 107.39 107.51 107.51 108.58 109.84 111.49 113.73 115.70 117.89 120.77 124.76 127.78 131.84 136.62 146.34 166.67 190.62 208.63 227.70 241.94 267.49 264.22 285.97 321.35 348.29 349.27 402.97 429.56 449.16 443.96 399.39 361.89 360.31 360.37 321.27 291.51 283.71 308.70 356.97 407.96 419.60 421.08 434.55 425.31 422.57 428.37 441.56 468.52 498.59 519.65 543.31 565.56 580.30 578.85 559.18 520.40 496.90 511.23 521.98 504.72 475.79 472.22 449.62 430.19 436.27 466.12 479.59 486.83 478.09 472.51 438.53 401.35 367.83 352.93 340.49 322.24 281.42 272.33 267.26 238.84 210.33 193.41 180.33 172.91 168.17 165.04 161.08 160.16 155.58 152.93 148.81 145.49 144.34 143.10 141.22 140.19 139.05 139.61 139.64 140.15 140.82 141.37 141.85 141.98 142.32 143.00 144.26 147.93
198.33 203.88 207.96 214.14 221.62 232.08 242.65 252.08 260.14 270.56 283.08 296.75 314.88 338.33 363.12 388.69 413.97 440.74 466.04 486.01 502.69 518.13 529.05 536.46 542.15 546.31 550.19 551.32 551.49 551.33 550.74 549.70 548.63 547.27 545.02 541.71 537.21 532.01 525.75 520.62 516.35 512.23 508.38 505.23 501.51 497.20 492.46 487.83 483.39 478.98 451.54 422.62 414.49 408.06 401.42 394.86 388.64 382.45 376.18 370.05 364.10 358.24 352.58 347.33 340.88 332.66 324.41 316.80 309.33 302.28 297.54 292.90 288.29 283.73 279.27 274.96 270.64 266.41 262.14 257.95 253.84 249.77 245.69 241.73 237.78 233.81 229.88 225.32 219.60 215.24 211.47 207.77 204.12 200.43 196.79 193.23 189.66 186.09 182.70 179.25 175.78 172.42 169.19 166.02 162.48 157.99 153.08 148.29 143.84 139.32 135.76 132.80 129.92 127.00 124.14 121.34 118.57 115.82 113.10 110.42 107.84 105.32 102.88 100.52 98.17 95.87 93.61 91.35 88.97 85.84 83.47 81.61 79.73 77.97 76.32 74.82 73.27 71.61 70.10 68.74 67.46 66.22 64.98 63.82 62.82 61.68 60.41 59.09 57.94 57.06 56.28 55.70 55.17 54.65 54.20 54.01 53.85 53.54 53.24 53.06 52.96 52.93 52.92 52.93 52.92 53.03 53.29 53.45 53.54 53.96 54.58 54.98 55.23 55.55 56.01 56.48 56.97 57.52 58.09 58.67 59.26 59.85 60.26 60.63 61.13 61.79 62.71 63.57 64.25 65.04 65.90 66.50 67.09 67.66 68.24 68.80 69.39 69.96 70.56 71.24 71.90 72.50 73.07 73.65 74.39 75.14 75.62 76.00 76.45 76.92 77.36 77.55 77.61 77.58 77.52 77.24 76.71 76.18 75.62 74.67 73.45 72.00 70.49 69.07 67.60 66.36 66.66 68.69 72.52 75.30 76.00 77.28 78.63 79.99 81.11 82.14 83.17 84.14 84.97 85.64 86.12 86.50 86.78 87.03 87.25 87.46 87.60 87.69 87.79 87.89 88.07 88.33 88.50 88.61 88.56 88.32 87.80 86.98 85.76 84.45 83.18 82.00 80.98 80.80 80.76 80.37 80.16 80.31 80.45 80.80 82.70 84.51 85.46 86.30 87.02 87.59 87.85 87.90 87.97 87.90 87.59 87.14 86.57 85.84 84.99 84.07 83.12 82.20 81.15 79.98 78.42 76.71 75.51 74.11 72.76 71.57 70.40 69.22 68.01 66.78 65.62 64.78 70.79 78.02 78.74 80.08 80.44 82.50 79.53 80.48 82.61 88.00 89.31 88.53 86.45 84.02 81.51 81.55 80.16 80.31 81.35 82.95 84.79 86.58 88.09 89.58 90.98 91.87 92.31 92.91 92.78 92.53 94.24 95.25 95.97 96.14 96.54 96.34 96.51 96.87 97.03 97.22 97.25 98.14 98.81 99.79 100.30 100.05 100.27 100.78 100.99 101.89 103.15 104.11 104.85 105.45 106.25 106.37 106.68 107.20 107.86 108.53 109.01 109.17 109.40 109.54 109.25 109.54 109.10 108.59 108.38 107.22 107.12 107.18 107.21 107.20 106.74 106.59 106.70 106.44 107.02 107.35 107.60 107.40 107.07 106.78 107.56 107.74 109.92 112.05 113.96 116.53 119.65 122.08 126.19 132.92 147.80 171.28 188.64 201.27 207.53 218.66 233.51 236.12 245.91 264.54 283.45 325.31 393.83 429.19 450.68 435.21 376.07 334.32 323.95 321.49 313.18 282.35 270.77 307.69 355.08 383.05 391.30 400.36 407.15 401.12 401.10 414.10 428.05 448.90 479.25 491.72 512.55 545.30 562.93 561.41 543.27 528.45 505.08 488.46 503.96 492.13 450.30 436.11 404.83 381.70 375.25 405.19 447.03 461.33 455.47 461.12 425.48 384.21 345.37 327.84 322.66 291.14 267.29 249.50 240.39 224.09 200.53 181.86 167.74 159.17 154.29 151.27 148.62 148.09 146.67 145.59 143.39 140.67 138.34 137.65 136.90 134.98 135.59 136.17 136.23 137.03 138.14 139.20 140.54 141.39 141.47 142.20 142.26 143.59
192.76 199.84 203.49 208.75 215.83 225.53 236.18 246.21 254.70 264.69 277.16 291.61 310.27 334.56 364.03 392.21 420.53 448.77 477.87 498.67 515.94 530.97 540.80 547.19 551.56 554.92 557.20 557.63 557.07 556.15 555.02 553.76 552.51 551.25 549.40 546.15 540.89 534.68 527.42 521.49 516.47 511.88 507.64 504.12 499.87 494.26 487.91 482.28 477.30 464.34 420.09 414.24 408.15 401.96 395.58 389.34 383.35 377.29 371.10 365.07 359.27 353.53 347.98 342.83 336.46 328.32 320.18 312.63 305.28 298.38 293.69 289.05 284.46 279.94 275.55 271.30 267.08 262.86 258.57 254.37 250.30 246.28 242.34 238.37 234.43 230.46 226.58 222.08 216.43 212.17 208.44 204.80 201.19 197.55 193.96 190.45 186.93 183.44 180.07 176.74 173.31 170.05 166.97 163.78 160.24 155.78 151.00 146.38 142.01 137.49 134.05 131.16 128.31 125.44 122.62 119.87 117.17 114.53 111.86 109.23 106.68 104.22 101.91 99.61 97.32 95.02 92.76 90.54 88.20 85.11 82.68 80.86 79.10 77.38 75.71 74.13 72.62 71.15 69.68 68.25 66.93 65.70 64.52 63.41 62.41 61.22 59.89 58.61 57.52 56.65 55.73 55.13 54.71 54.23 53.71 53.39 53.16 52.88 52.71 52.64 52.47 52.30 52.23 52.26 52.30 52.46 52.73 52.85 52.88 53.23 53.77 54.15 54.46 54.78 55.17 55.67 56.21 56.74 57.26 57.85 58.44 59.02 59.43 59.78 60.28 60.94 61.82 62.64 63.31 64.10 64.96 65.56 66.15 66.72 67.22 67.78 68.37 68.94 69.53 70.19 70.81 71.39 71.96 72.56 73.23 73.96 74.44 74.83 75.28 75.68 76.06 76.19 76.24 76.23 76.17 75.92 75.37 74.82 74.22 73.36 72.27 71.06 69.57 67.96 66.32 65.06 65.65 67.96 71.70 74.44 75.31 76.39 77.62 78.89 79.95 80.94 81.96 82.90 83.72 84.44 85.03 85.49 85.83 86.10 86.35 86.60 86.80 86.94 87.11 87.28 87.50 87.80 88.02 88.14 88.20 88.11 87.72 87.03 86.02 85.01 84.08 83.41 83.02 83.52 83.99 83.84 83.66 83.59 83.05 82.46 83.31 84.56 85.35 85.95 86.47 86.89 87.14 87.23 87.25 87.11 86.82 86.39 85.81 85.09 84.27 83.38 82.46 81.59 80.58 79.43 77.96 76.28 75.08 73.72 72.46 71.31 70.19 69.06 67.93 66.77 65.64 64.59 65.76 70.15 72.68 74.02 77.75 81.98 81.38 79.31 80.96 87.06 91.03 90.75 89.85 88.21 87.34 84.20 83.58 82.31 81.68 82.41 83.07 85.43 86.98 88.74 89.85 90.52 91.25 92.28 92.43 92.24 92.86 94.19 95.00 95.38 96.30 96.51 96.86 97.33 97.66 97.65 97.59 98.39 99.03 99.34 99.94 101.33 101.32 101.03 101.38 102.50 102.89 103.80 104.19 104.71 105.52 105.71 105.95 106.35 106.48 107.30 107.66 107.98 108.30 108.32 108.23 108.94 109.01 108.59 108.11 107.24 106.73 106.48 105.98 105.60 105.30 104.80 104.76 105.39 106.71 107.46 107.99 107.91 107.61 107.67 108.05 107.83 108.15 109.23 111.08 113.55 115.65 117.26 119.87 125.06 136.06 148.32 162.63 173.22 182.94 193.47 205.66 218.19 232.26 256.51 289.40 348.58 413.56 426.08 438.53 422.07 341.13 281.69 298.42 288.33 279.43 276.15 273.49 300.93 343.20 349.19 358.14 368.14 378.06 374.59 370.09 380.43 385.80 426.27 447.94 466.27 507.79 535.72 543.68 540.63 522.45 509.70 502.59 479.46 480.26 464.80 436.41 420.25 395.36 367.11 357.52 368.45 397.65 409.21 432.03 443.05 402.50 356.11 323.48 305.56 299.07 283.29 253.49 228.74 212.50 198.60 182.76 169.83 157.50 150.33 146.67 144.40 142.66 141.43 140.51 139.76 138.66 136.79 134.45 133.43 132.31 130.70 130.76 131.13 133.30 134.35 135.45 136.67 138.21 139.82 140.18 141.53 142.03 142.46
186.66 193.36 200.07 204.62 209.80 219.00 229.68 240.39 249.88 259.34 272.21 287.55 307.86 334.42 367.22 398.59 429.26 459.67 489.27 513.71 531.12 544.93 552.96 558.32 561.28 562.89 563.26 562.70 561.30 559.53 557.58 555.66 554.03 552.61 550.53 546.02 540.07 533.58 526.75 519.52 514.07 509.45 505.34 501.91 497.63 490.77 482.39 476.26 463.73 418.47 413.15 407.47 401.61 395.65 389.68 383.61 377.85 371.96 366.00 360.14 354.37 348.76 343.31 338.22 331.89 323.87 315.90 308.49 301.19 294.45 289.84 285.22 280.67 276.19 271.89 267.73 263.54 259.28 254.99 250.81 246.80 242.84 238.91 234.97 231.06 227.17 223.35 218.84 213.29 209.10 205.42 201.82 198.27 194.68 191.18 187.72 184.25 180.84 177.52 174.24 170.94 167.70 164.65 161.50 158.05 153.64 148.95 144.47 140.17 135.67 132.35 129.55 126.79 123.95 121.16 118.46 115.83 113.23 110.67 108.12 105.60 103.17 100.92 98.66 96.39 94.13 91.90 89.73 87.44 84.41 82.01 80.23 78.54 76.82 75.14 73.51 72.02 70.70 69.25 67.78 66.46 65.26 64.09 63.00 61.99 60.78 59.41 58.14 57.10 56.22 55.22 54.61 54.28 53.81 53.25 52.86 52.57 52.31 52.19 52.19 52.00 51.67 51.59 51.64 51.73 51.89 52.14 52.24 52.25 52.54 53.00 53.36 53.71 54.04 54.40 54.89 55.47 55.94 56.45 57.02 57.61 58.19 58.61 58.97 59.47 60.12 60.95 61.74 62.43 63.21 64.07 64.67 65.26 65.80 66.28 66.81 67.40 67.98 68.56 69.16 69.75 70.33 70.91 71.49 72.13 72.74 73.30 73.78 74.16 74.51 74.83 74.97 75.02 75.01 74.94 74.70 74.21 73.67 73.07 72.40 71.64 70.82 69.65 68.05 66.40 65.18 66.13 68.55 71.66 74.06 75.27 76.14 77.03 78.01 78.98 79.95 80.90 81.80 82.62 83.37 84.02 84.53 84.91 85.24 85.51 85.75 85.96 86.17 86.44 86.71 87.00 87.38 87.60 87.71 87.88 87.94 87.63 87.04 86.33 85.53 84.87 84.43 84.32 84.52 84.87 84.84 84.78 84.75 84.30 83.65 83.87 84.71 85.34 85.76 86.04 86.31 86.57 86.70 86.62 86.37 86.13 85.72 85.13 84.41 83.59 82.68 81.77 80.97 79.98 78.84 77.47 75.84 74.65 73.37 72.20 71.09 70.02 68.95 67.85 66.81 65.72 64.71 63.82 64.61 65.81 68.90 73.34 78.18 82.81 80.26 79.33 85.35 89.96 91.26 91.12 91.06 90.47 88.80 88.75 87.30 85.01 84.87 85.31 86.02 86.44 88.03 88.79 90.28 91.22 92.07 92.53 92.91 93.22 93.37 93.64 94.35 96.12 96.66 97.57 98.86 99.18 99.63 99.82 100.17 100.33 99.70 99.75 101.92 102.61 102.30 102.32 103.04 104.00 104.15 103.95 103.97 104.18 104.67 105.08 105.21 104.86 105.59 105.86 106.59 107.17 107.15 107.63 107.71 107.82 107.42 106.55 105.98 105.65 105.29 104.95 104.39 103.61 102.88 101.40 103.49 106.19 107.15 108.19 108.38 107.83 107.99 108.79 109.31 109.33 109.58 109.97 111.01 114.11 115.22 116.73 119.10 121.69 129.02 140.02 150.23 162.30 179.34 196.78 215.91 241.14 269.44 291.97 375.16 388.96 409.89 418.66 410.95 352.81 267.85 247.66 232.62 241.67 258.91 273.55 294.46 312.67 310.18 326.31 336.54 350.44 344.70 341.74 353.65 366.30 409.54 432.04 459.14 484.66 514.23 528.97 522.22 502.95 488.37 476.76 462.87 454.29 440.15 423.27 403.74 381.47 364.00 348.11 348.43 370.91 383.32 427.74 422.65 375.24 331.41 303.66 285.01 276.04 268.18 239.69 211.37 193.50 176.72 166.27 157.46 148.59 145.18 142.38 140.60 139.06 138.44 137.11 136.30 135.27 133.62 131.94 130.80 129.53 128.22 127.32 128.14 130.32 131.50 132.94 133.97 135.14 136.71 138.26 139.95 141.44 143.32
181.23 189.06 193.58 198.57 203.29 211.95 220.83 233.06 243.15 254.37 268.76 285.40 308.49 337.23 372.39 405.91 438.47 469.07 499.18 524.18 541.69 554.05 560.40 564.95 567.00 567.67 567.50 566.35 563.87 561.00 558.18 555.55 553.34 551.35 548.06 542.92 536.77 530.20 523.37 516.13 510.35 505.75 501.85 498.34 492.24 483.69 474.48 443.10 436.68 411.09 406.10 400.65 395.01 389.33 383.56 377.94 372.25 366.53 360.83 355.14 349.45 343.94 338.59 333.54 327.27 319.46 311.51 304.31 297.09 290.50 285.96 281.43 276.91 272.47 268.26 264.18 259.94 255.66 251.43 247.31 243.35 239.40 235.46 231.55 227.72 223.92 220.16 215.64 210.14 206.02 202.39 198.82 195.33 191.88 188.43 185.01 181.63 178.30 175.00 171.77 168.63 165.44 162.21 159.17 155.91 151.57 146.91 142.47 138.25 133.89 130.63 127.98 125.37 122.53 119.75 117.16 114.56 111.95 109.50 107.11 104.59 102.14 99.89 97.63 95.35 93.16 91.03 88.91 86.66 83.75 81.46 79.73 78.03 76.31 74.60 72.97 71.51 70.24 68.83 67.33 66.08 64.90 63.69 62.56 61.56 60.34 58.96 57.70 56.67 55.78 54.77 54.17 53.86 53.40 52.81 52.41 52.10 51.87 51.72 51.67 51.44 51.14 51.05 51.10 51.17 51.27 51.45 51.57 51.63 51.93 52.33 52.65 53.00 53.34 53.68 54.17 54.72 55.20 55.68 56.20 56.78 57.37 57.79 58.14 58.64 59.29 60.11 60.89 61.58 62.33 63.17 63.77 64.36 64.90 65.38 65.92 66.50 67.09 67.67 68.24 68.80 69.32 69.88 70.46 71.02 71.56 72.16 72.68 73.05 73.39 73.68 73.81 73.86 73.84 73.79 73.58 73.17 72.70 72.19 71.70 71.20 70.71 69.86 68.45 67.04 66.11 67.12 69.32 71.80 73.79 75.14 75.83 76.48 77.30 78.16 79.09 80.02 80.91 81.70 82.44 83.10 83.63 84.08 84.45 84.77 85.01 85.23 85.47 85.80 86.14 86.50 86.95 87.21 87.32 87.56 87.74 87.57 87.10 86.53 85.98 85.53 85.25 85.15 85.21 85.21 85.21 85.22 85.22 84.84 84.38 84.31 84.83 85.28 85.48 85.70 85.81 86.04 86.17 85.98 85.66 85.43 85.05 84.47 83.74 82.93 82.04 81.15 80.37 79.40 78.26 76.97 75.42 74.25 73.06 71.93 70.90 69.88 68.84 67.79 66.79 65.81 64.84 63.72 62.70 62.89 64.53 68.24 72.87 78.89 80.17 78.83 81.91 87.12 90.14 91.58 91.81 92.28 92.75 92.58 92.03 92.57 91.34 90.56 90.06 89.27 89.75 90.52 91.50 92.07 92.67 92.39 93.26 93.25 93.99 95.23 94.08 95.67 97.79 98.46 99.22 99.88 100.54 100.70 100.85 101.32 101.90 101.50 101.54 102.56 103.00 102.75 103.24 103.63 103.48 103.16 102.91 103.06 102.95 103.27 103.55 103.75 103.53 103.67 104.59 104.77 104.87 105.28 105.55 105.47 105.19 105.02 105.13 104.99 104.71 104.53 103.78 101.07 98.02 98.81 103.60 105.18 105.57 106.18 107.01 107.07 107.70 108.47 108.43 108.64 108.97 109.41 110.10 111.37 112.31 113.91 115.67 117.68 121.20 127.40 137.23 150.67 178.66 204.08 225.29 251.99 274.31 293.13 322.19 349.43 392.55 405.17 401.63 377.53 301.49 225.71 215.15 219.62 235.82 254.87 276.01 276.69 283.29 295.92 307.91 319.94 320.89 317.71 325.45 350.95 388.01 414.95 441.76 460.92 485.77 506.63 507.26 480.52 462.09 456.10 433.35 427.35 415.47 402.89 377.13 363.64 353.37 337.02 336.39 361.27 362.76 416.77 390.74 342.88 300.14 282.33 262.96 252.26 249.06 222.38 195.13 177.30 161.03 153.42 147.69 143.26 141.04 139.42 137.82 136.96 136.16 135.47 134.58 133.06 131.56 130.65 129.90 128.75 127.59 126.53 126.51 127.51 128.50 130.37 131.23 131.91 133.27 134.90 137.09 140.27 145.73
171.51 180.38 186.39 192.47 199.67 206.35 212.32 224.87 237.82 250.56 265.84 281.88 309.46 339.67 376.88 412.12 441.85 477.36 507.61 532.70 549.73 560.45 565.97 569.88 571.15 571.06 569.85 568.11 564.76 561.07 557.54 554.33 551.95 549.57 544.43 536.59 530.28 524.25 517.38 510.74 504.34 499.29 495.03 490.87 483.66 468.97 444.27 415.89 409.79 403.79 398.84 393.83 388.45 382.97 377.60 372.06 366.58 361.02 355.51 350.00 344.50 339.06 333.83 328.84 322.62 315.02 307.25 300.14 293.00 286.52 282.09 277.59 273.15 268.76 264.59 260.54 256.31 252.09 247.94 243.88 239.94 235.98 232.04 228.18 224.39 220.69 216.98 212.46 207.01 202.97 199.38 195.87 192.43 189.06 185.68 182.30 179.01 175.75 172.46 169.26 166.24 163.08 159.84 156.92 153.79 149.52 144.88 140.49 136.38 132.12 128.95 126.39 123.86 121.07 118.35 115.84 113.30 110.70 108.32 106.04 103.57 101.13 98.87 96.61 94.35 92.23 90.20 88.14 85.93 83.05 80.91 79.20 77.50 75.79 74.10 72.48 71.03 69.80 68.40 66.93 65.69 64.54 63.30 62.14 61.14 59.93 58.55 57.29 56.26 55.35 54.36 53.77 53.45 52.98 52.39 52.00 51.70 51.47 51.28 51.10 50.88 50.62 50.58 50.61 50.63 50.66 50.72 50.86 51.04 51.37 51.71 51.99 52.35 52.69 53.03 53.48 53.98 54.45 54.92 55.40 55.94 56.54 56.95 57.31 57.81 58.47 59.29 60.07 60.76 61.46 62.25 62.85 63.43 64.00 64.55 65.12 65.71 66.29 66.87 67.47 67.98 68.36 68.86 69.46 69.99 70.47 70.99 71.49 71.92 72.29 72.58 72.71 72.74 72.72 72.71 72.57 72.27 71.95 71.65 71.34 70.96 70.64 70.07 69.20 68.30 67.96 68.74 70.22 72.01 73.61 74.81 75.45 76.02 76.71 77.48 78.32 79.29 80.21 80.94 81.63 82.24 82.79 83.31 83.73 84.10 84.39 84.62 84.85 85.19 85.57 86.01 86.51 86.82 86.98 87.26 87.51 87.53 87.21 86.79 86.34 86.01 85.79 85.54 85.42 85.27 85.28 85.32 85.33 85.07 84.77 84.60 84.86 85.07 85.25 85.31 85.38 85.52 85.57 85.31 85.00 84.71 84.33 83.80 83.06 82.24 81.47 80.65 79.79 78.82 77.73 76.51 75.01 73.87 72.77 71.70 70.78 69.77 68.69 67.67 66.73 65.84 64.91 63.79 62.81 61.94 62.48 63.60 65.95 71.04 74.05 74.71 79.90 81.09 87.48 91.24 92.19 92.80 93.25 93.10 93.20 93.37 93.42 93.82 93.00 91.48 90.88 91.19 91.74 92.21 92.63 93.26 93.22 93.34 93.39 93.61 94.27 94.96 96.15 96.97 97.68 98.62 99.12 99.14 99.07 99.41 100.33 100.79 100.57 100.77 100.73 101.77 101.94 102.06 101.88 101.88 101.78 101.89 101.46 101.01 101.18 101.32 101.28 101.50 102.18 102.61 103.02 103.41 103.74 103.67 103.39 103.17 103.50 103.58 103.48 103.15 102.09 97.22 94.14 101.62 104.57 105.41 105.43 105.74 106.19 106.66 107.24 107.82 108.18 108.33 108.65 108.92 109.11 109.86 110.55 111.89 112.95 115.36 117.88 122.18 131.67 148.58 182.43 212.02 233.19 254.26 263.53 278.70 289.21 315.71 373.44 392.18 387.26 369.24 334.52 235.18 214.29 216.22 221.60 232.37 246.34 242.84 253.46 267.86 283.67 291.15 295.92 292.26 300.44 329.66 364.23 388.37 413.08 440.63 462.04 477.19 488.27 463.46 448.47 434.68 399.22 399.96 399.20 368.34 340.95 339.18 336.05 320.20 324.88 350.41 355.96 391.79 352.05 307.64 275.98 256.38 240.06 228.46 222.95 198.12 178.18 161.95 149.80 145.52 141.92 139.28 137.96 136.80 135.58 134.85 134.13 133.26 132.72 131.26 130.06 129.48 129.06 128.39 127.92 126.88 126.08 126.17 126.30 127.74 128.63 128.59 129.38 131.75 133.42 137.97 145.07
162.12 171.92 178.78 184.80 192.60 199.20 205.31 217.44 229.42 243.85 261.26 280.10 310.17 342.98 380.91 417.54 447.40 482.10 511.32 536.05 552.30 561.85 568.09 571.77 573.04 572.70 570.96 568.32 564.08 559.59 555.47 551.75 549.01 545.79 537.40 529.13 521.72 516.35 509.90 503.42 496.13 490.22 485.18 479.10 453.44 414.33 410.57 407.54 401.83 396.32 391.80 387.00 381.93 376.66 371.51 366.21 360.83 355.45 350.07 344.69 339.41 334.16 329.03 324.14 318.07 310.61 303.01 295.99 288.90 282.52 278.13 273.77 269.41 265.07 260.86 256.75 252.66 248.60 244.56 240.56 236.58 232.61 228.66 224.83 221.09 217.45 213.81 209.32 203.94 199.97 196.43 192.97 189.58 186.25 182.92 179.59 176.35 173.14 169.89 166.72 163.67 160.63 157.60 154.77 151.70 147.43 142.85 138.57 134.52 130.37 127.31 124.74 122.18 119.54 116.93 114.48 112.01 109.49 107.15 104.82 102.48 100.11 97.84 95.59 93.46 91.39 89.43 87.47 85.30 82.40 80.24 78.57 76.92 75.27 73.65 72.03 70.58 69.36 67.99 66.54 65.29 64.14 62.90 61.76 60.76 59.55 58.22 56.95 55.88 54.94 54.01 53.46 53.05 52.54 51.98 51.58 51.29 51.07 50.84 50.57 50.34 50.17 50.13 50.11 50.11 50.10 50.09 50.22 50.48 50.80 51.12 51.38 51.72 52.07 52.42 52.84 53.31 53.76 54.21 54.66 55.16 55.72 56.14 56.54 57.05 57.70 58.49 59.25 59.94 60.61 61.37 61.97 62.55 63.13 63.72 64.29 64.84 65.42 66.01 66.60 67.11 67.45 67.92 68.50 69.01 69.46 69.93 70.40 70.89 71.29 71.58 71.72 71.76 71.77 71.79 71.71 71.49 71.32 71.18 71.03 70.80 70.56 70.28 69.89 69.66 69.56 70.11 71.00 72.29 73.59 74.53 75.08 75.59 76.19 76.86 77.66 78.67 79.58 80.28 80.92 81.49 82.06 82.61 83.08 83.48 83.81 84.06 84.31 84.63 85.00 85.54 86.08 86.43 86.63 86.94 87.28 87.36 87.27 86.95 86.61 86.36 86.07 85.77 85.45 85.23 85.23 85.26 85.26 85.12 84.95 84.78 84.79 84.91 84.93 84.97 84.99 84.99 84.92 84.70 84.40 84.01 83.58 83.10 82.39 81.59 80.94 80.24 79.27 78.27 77.30 76.09 74.61 73.53 72.46 71.49 70.66 69.66 68.52 67.51 66.62 65.79 64.91 63.90 62.99 62.19 61.33 60.44 59.64 63.24 65.73 68.16 72.60 76.09 83.86 89.78 89.70 90.63 91.42 91.78 92.44 92.75 93.09 93.71 93.67 93.14 92.84 92.68 93.47 93.11 92.89 93.80 94.48 94.43 94.37 93.78 94.04 94.55 95.11 96.05 95.65 96.39 96.98 97.56 97.90 98.38 99.14 99.34 99.56 99.75 100.03 100.02 100.12 100.41 100.35 100.37 100.55 100.61 100.25 99.90 99.73 99.30 99.19 99.58 100.30 100.78 101.13 101.71 102.11 102.48 102.71 102.57 102.71 102.73 100.91 100.28 100.20 93.44 93.57 102.55 104.84 104.58 104.82 105.38 105.70 106.11 106.69 107.24 107.90 107.95 108.12 108.40 108.38 108.87 109.60 110.39 111.24 112.96 116.01 120.52 129.89 152.11 186.71 211.52 219.14 223.98 235.12 248.00 263.20 297.76 359.87 375.33 367.86 348.64 340.98 256.62 223.05 213.05 209.82 210.60 212.40 214.46 228.00 243.25 260.39 263.49 262.70 264.77 277.04 311.86 341.92 357.80 390.96 419.42 432.48 447.13 459.28 445.83 431.63 403.27 369.13 365.67 363.96 331.24 314.53 317.85 320.79 301.45 305.09 330.91 353.29 365.23 329.10 275.79 250.93 231.09 218.38 205.53 192.73 177.47 162.87 150.89 143.17 139.54 136.98 135.41 134.60 133.95 133.96 132.91 131.78 131.21 130.36 129.24 128.75 128.22 128.06 127.58 127.50 127.03 126.41 125.11 125.34 126.16 126.32 126.24 126.61 126.93 127.52 133.96 142.54
154.74 162.78 170.20 178.22 185.19 190.51 199.40 210.84 223.67 239.58 257.39 280.42 312.94 345.98 384.17 418.17 450.27 483.56 510.74 534.37 549.21 558.67 566.69 570.98 572.70 572.38 570.67 566.95 562.03 557.03 551.92 547.85 543.75 538.78 529.40 518.89 511.39 506.67 497.85 492.00 484.50 477.84 458.68 438.42 406.44 404.59 402.18 399.26 394.00 388.82 384.57 380.04 375.29 370.32 365.34 360.27 355.07 349.85 344.61 339.42 334.32 329.25 324.24 319.43 313.46 306.18 298.73 291.80 284.83 278.53 274.18 269.90 265.61 261.33 257.12 252.98 248.98 245.06 241.10 237.16 233.22 229.25 225.33 221.55 217.87 214.25 210.64 206.20 200.88 196.99 193.51 190.08 186.74 183.47 180.18 176.89 173.70 170.52 167.36 164.21 161.15 158.21 155.36 152.61 149.56 145.34 140.83 136.67 132.70 128.68 125.71 123.11 120.55 117.94 115.48 113.10 110.69 108.27 105.90 103.57 101.36 99.11 96.82 94.66 92.59 90.58 88.66 86.81 84.65 81.70 79.56 77.91 76.31 74.78 73.21 71.61 70.15 68.93 67.58 66.19 64.91 63.72 62.52 61.42 60.41 59.25 57.96 56.66 55.53 54.55 53.72 53.16 52.67 52.11 51.55 51.16 50.87 50.66 50.40 50.08 49.86 49.74 49.66 49.61 49.60 49.59 49.59 49.70 49.88 50.21 50.52 50.78 51.14 51.50 51.83 52.27 52.75 53.15 53.56 54.00 54.46 54.89 55.35 55.87 56.43 57.05 57.73 58.41 59.10 59.77 60.54 61.14 61.72 62.31 62.90 63.40 63.84 64.40 65.00 65.59 66.13 66.58 67.08 67.60 68.07 68.52 68.97 69.46 70.02 70.41 70.64 70.82 70.96 71.05 71.06 71.01 70.89 70.81 70.77 70.66 70.64 70.51 70.47 70.47 70.47 70.59 70.96 71.59 72.56 73.51 74.37 74.82 75.21 75.72 76.35 77.14 78.10 78.98 79.71 80.33 80.89 81.47 82.02 82.48 82.87 83.22 83.56 83.82 84.14 84.47 85.02 85.64 86.03 86.25 86.57 86.93 87.20 87.25 86.98 86.76 86.58 86.30 85.98 85.60 85.31 85.28 85.27 85.24 85.18 85.08 84.88 84.73 84.71 84.67 84.66 84.61 84.49 84.34 84.16 83.88 83.40 82.93 82.46 81.79 81.02 80.46 79.76 78.74 77.75 76.86 75.66 74.24 73.23 72.21 71.29 70.50 69.53 68.39 67.41 66.55 65.77 64.95 64.06 63.21 62.41 61.52 60.64 59.95 59.37 59.63 61.72 64.46 68.46 75.13 80.46 83.66 89.89 91.32 90.93 91.92 92.03 92.38 92.96 93.21 92.93 93.04 93.00 92.79 93.20 92.92 93.41 94.09 94.14 94.35 94.22 94.43 94.65 95.07 95.43 95.42 95.40 95.48 95.93 96.35 96.74 97.43 97.84 98.07 98.26 98.48 98.38 98.61 98.89 99.03 99.02 99.41 99.28 98.96 98.64 98.30 98.04 98.33 99.04 99.52 99.86 100.10 100.95 101.52 101.97 102.37 102.06 101.59 100.06 98.03 96.66 97.90 94.81 97.88 102.60 103.37 101.63 103.38 104.64 105.33 106.17 106.04 106.45 106.87 107.38 107.44 107.74 107.88 108.26 109.02 110.01 110.99 111.87 114.33 118.41 128.05 153.11 185.40 195.18 186.49 185.66 196.95 221.53 253.65 291.88 350.63 363.24 343.72 314.09 319.99 274.67 233.17 208.25 193.54 189.72 185.60 187.25 203.81 217.50 231.72 230.57 229.37 239.48 271.59 302.96 317.75 333.93 361.38 385.58 407.05 422.40 434.13 423.53 417.90 394.97 352.14 329.34 319.02 294.94 291.80 300.28 302.93 285.38 286.96 312.16 339.11 338.94 288.40 244.89 223.68 207.92 196.41 180.85 166.13 155.00 145.60 137.94 135.01 134.35 133.47 132.73 132.24 131.76 131.74 131.16 129.74 128.85 127.35 126.61 126.06 125.99 125.86 125.78 125.76 125.61 124.83 124.19 123.23 122.30 123.02 122.58 122.36 122.59 123.59 125.95 130.42
148.63 156.32 163.87 171.53 178.00 183.89 194.93 206.41 219.07 237.72 257.14 283.55 316.77 349.86 386.94 415.69 450.01 482.18 507.89 529.34 543.11 554.34 563.17 568.48 570.38 570.58 568.95 564.85 558.89 552.97 546.58 542.29 537.00 530.33 520.73 508.22 500.07 493.40 482.56 474.20 467.16 454.84 399.80 399.02 397.83 396.18 393.92 391.12 386.24 381.31 377.25 373.01 368.53 363.82 359.06 354.20 349.24 344.24 339.17 334.19 329.28 324.32 319.40 314.73 308.87 301.65 294.33 287.57 280.81 274.62 270.25 265.93 261.71 257.53 253.36 249.25 245.26 241.35 237.45 233.62 229.81 225.93 222.04 218.36 214.76 211.08 207.44 203.02 197.80 194.04 190.63 187.21 183.91 180.73 177.48 174.18 171.06 167.96 164.85 161.75 158.77 155.86 153.02 150.34 147.33 143.25 138.87 134.77 130.83 127.00 124.15 121.57 119.00 116.52 114.11 111.73 109.36 107.03 104.66 102.36 100.30 98.15 95.85 93.71 91.70 89.76 87.86 86.06 83.92 81.06 78.93 77.30 75.74 74.28 72.79 71.19 69.72 68.50 67.20 65.87 64.56 63.33 62.21 61.14 60.12 58.95 57.68 56.36 55.19 54.17 53.41 52.84 52.27 51.69 51.15 50.77 50.48 50.25 49.97 49.61 49.42 49.33 49.21 49.12 49.13 49.13 49.14 49.21 49.34 49.65 49.98 50.25 50.58 50.93 51.28 51.71 52.16 52.52 52.91 53.38 53.79 54.14 54.62 55.21 55.78 56.36 56.95 57.60 58.30 58.97 59.73 60.34 60.91 61.49 62.08 62.54 62.90 63.43 64.02 64.61 65.18 65.73 66.24 66.72 67.18 67.65 68.10 68.60 69.19 69.56 69.79 70.02 70.24 70.40 70.43 70.39 70.38 70.35 70.37 70.37 70.48 70.49 70.63 70.90 71.05 71.18 71.51 72.05 72.81 73.57 74.23 74.62 74.92 75.34 75.96 76.70 77.60 78.42 79.21 79.85 80.41 80.99 81.53 81.93 82.29 82.63 83.03 83.40 83.70 83.97 84.54 85.22 85.63 85.84 86.14 86.51 86.83 87.02 86.92 86.79 86.66 86.47 86.25 85.87 85.56 85.48 85.42 85.35 85.27 85.17 84.91 84.65 84.51 84.45 84.34 84.19 84.01 83.84 83.74 83.48 82.94 82.41 81.89 81.28 80.61 79.94 79.16 78.18 77.26 76.41 75.22 73.89 72.98 72.02 71.10 70.23 69.32 68.35 67.42 66.54 65.80 65.06 64.28 63.45 62.58 61.74 60.96 60.26 59.40 58.94 57.63 57.83 61.01 65.68 69.01 73.44 80.36 83.25 85.15 88.85 91.03 92.19 92.06 92.25 92.52 92.89 92.94 92.80 92.75 92.72 92.83 93.21 93.54 93.68 93.79 94.13 94.39 94.76 95.13 95.22 94.87 94.77 95.25 95.35 95.47 95.86 96.21 96.42 96.66 96.85 96.97 97.52 97.78 97.71 97.79 98.19 98.18 97.93 98.48 98.66 98.85 99.26 99.37 99.47 99.33 99.37 100.06 100.54 101.16 101.53 100.24 96.63 94.40 92.68 92.42 95.14 97.64 99.72 101.20 100.88 98.40 102.08 103.19 104.86 105.69 105.47 105.78 105.56 106.49 106.62 106.80 107.34 107.96 108.96 110.13 110.95 111.46 112.50 114.95 123.27 141.53 164.57 163.81 163.68 170.60 189.98 218.73 257.36 284.27 338.02 348.17 319.74 258.44 278.39 274.29 236.86 201.07 181.73 173.96 171.46 170.19 172.49 179.66 186.98 190.14 198.57 211.97 239.49 263.49 288.23 313.84 325.48 351.62 373.81 393.69 397.45 407.97 402.38 370.63 316.36 284.87 261.72 249.77 261.23 276.62 280.40 264.13 272.44 299.40 316.56 314.20 272.33 217.93 196.36 183.58 171.71 156.45 147.33 139.43 136.80 134.14 132.64 131.76 130.76 130.27 129.91 129.26 129.76 129.36 128.05 126.97 125.41 124.48 123.64 122.90 122.49 122.12 121.77 121.51 120.71 120.29 119.66 118.91 118.38 117.79 118.67 118.84 119.65 120.78 123.73
141.85 150.18 156.35 163.89 170.35 178.41 189.94 201.66 215.02 235.85 259.52 288.47 321.13 353.94 387.43 412.89 446.20 476.12 501.91 522.42 536.08 550.25 559.23 564.65 566.99 567.81 566.07 562.12 555.02 547.71 539.80 534.19 527.88 520.97 512.87 501.82 492.97 479.90 464.39 455.33 407.64 392.39 391.16 390.45 389.37 387.88 385.78 383.11 378.51 373.89 370.03 366.03 361.77 357.33 352.78 348.10 343.37 338.59 333.72 328.90 324.19 319.35 314.52 309.98 304.24 297.13 289.91 283.33 276.76 270.66 266.27 261.97 257.80 253.71 249.63 245.56 241.59 237.68 233.80 230.06 226.39 222.61 218.76 215.18 211.63 207.91 204.28 199.92 194.74 191.09 187.76 184.35 181.08 177.99 174.78 171.49 168.42 165.43 162.37 159.35 156.46 153.56 150.68 148.00 145.05 141.16 136.94 132.89 129.08 125.34 122.62 120.11 117.57 115.15 112.76 110.37 108.03 105.75 103.46 101.30 99.31 97.24 94.92 92.79 90.85 88.91 87.00 85.18 83.11 80.42 78.41 76.79 75.22 73.80 72.36 70.75 69.28 68.05 66.84 65.60 64.27 63.00 62.00 60.99 59.89 58.65 57.33 55.99 54.82 53.80 53.00 52.39 51.82 51.28 50.79 50.43 50.11 49.84 49.52 49.16 48.97 48.90 48.79 48.71 48.71 48.71 48.72 48.75 48.82 49.14 49.54 49.83 50.02 50.36 50.78 51.15 51.52 51.83 52.23 52.77 53.21 53.52 54.00 54.55 55.02 55.55 56.14 56.86 57.58 58.23 58.97 59.57 60.10 60.67 61.25 61.74 62.14 62.59 63.14 63.70 64.29 64.89 65.41 65.87 66.34 66.84 67.30 67.80 68.37 68.74 68.99 69.29 69.53 69.72 69.80 69.81 69.91 69.93 69.99 70.11 70.36 70.50 70.75 71.15 71.44 71.58 71.96 72.46 73.06 73.64 74.21 74.50 74.76 75.12 75.73 76.44 77.21 77.98 78.77 79.41 79.97 80.56 81.08 81.41 81.74 82.10 82.55 83.00 83.27 83.52 84.07 84.75 85.17 85.41 85.71 86.08 86.46 86.72 86.78 86.74 86.62 86.53 86.40 86.09 85.81 85.68 85.57 85.45 85.34 85.21 84.87 84.54 84.35 84.23 84.06 83.83 83.60 83.38 83.27 83.01 82.45 81.88 81.31 80.77 80.15 79.41 78.58 77.66 76.82 76.02 74.81 73.55 72.73 71.82 70.90 70.00 69.16 68.34 67.44 66.56 65.85 65.16 64.48 63.66 62.76 61.98 61.31 60.64 59.83 58.78 57.45 56.17 57.02 58.38 58.67 62.66 68.34 71.84 75.60 80.52 84.74 87.25 91.16 90.94 91.84 92.61 93.31 93.11 93.16 93.07 92.91 92.69 93.02 92.86 92.99 93.24 93.63 93.92 94.18 94.40 94.34 94.50 94.63 94.72 94.86 95.01 94.92 95.28 95.71 95.93 96.12 96.65 96.92 96.58 97.00 97.28 97.26 97.68 98.93 99.48 100.04 99.93 99.53 98.79 97.79 97.98 98.21 98.97 99.49 99.50 97.05 88.94 86.35 84.75 87.95 94.90 96.28 98.26 99.18 98.56 96.64 101.16 102.70 103.01 103.99 104.59 105.59 105.17 105.09 105.54 105.26 106.07 107.04 108.47 109.68 110.21 110.19 110.50 111.08 112.89 118.24 128.94 139.14 151.20 171.35 199.67 225.26 240.04 259.54 319.22 322.78 271.87 228.29 223.81 232.46 224.91 192.79 172.55 161.01 158.41 158.02 157.97 157.29 159.67 162.49 168.63 177.78 199.87 249.88 278.04 292.25 295.66 298.21 302.24 348.73 349.61 369.42 383.10 347.76 293.18 257.20 225.21 215.19 231.08 252.36 253.27 250.41 255.46 266.29 274.67 266.13 235.48 197.23 175.46 162.45 151.33 143.75 139.63 135.22 133.20 131.77 130.17 129.00 127.86 127.46 127.09 126.72 126.61 125.50 124.01 122.52 121.84 120.64 119.43 118.68 118.58 118.10 117.57 117.85 117.46 117.19 116.74 116.17 115.78 115.09 115.56 115.67 116.31 117.42 120.18
136.39 144.80 150.35 156.15 163.15 172.66 183.75 196.38 211.87 232.56 261.14 292.34 324.40 355.67 385.00 409.50 438.02 465.33 490.35 512.16 526.60 542.43 552.26 558.22 561.10 563.17 561.96 558.68 552.14 542.83 532.94 524.07 516.96 510.31 503.19 493.31 482.85 468.03 427.83 390.56 382.02 382.64 382.67 382.04 381.02 379.59 377.74 375.34 370.94 366.56 362.98 359.18 355.11 350.89 346.58 342.09 337.56 332.92 328.25 323.57 318.98 314.32 309.63 305.17 299.50 292.62 285.59 279.08 272.60 266.58 262.32 258.07 253.98 249.92 245.90 241.90 238.04 234.14 230.28 226.54 222.94 219.18 215.47 211.93 208.39 204.75 201.14 196.82 191.73 188.14 184.85 181.57 178.31 175.23 172.07 168.83 165.83 162.92 159.94 156.97 154.15 151.30 148.38 145.72 142.84 139.07 134.98 130.99 127.25 123.65 121.04 118.60 116.14 113.76 111.40 109.03 106.72 104.47 102.31 100.23 98.29 96.26 93.99 91.90 89.99 88.06 86.15 84.32 82.33 79.83 77.90 76.29 74.72 73.33 71.92 70.34 68.87 67.61 66.45 65.30 63.96 62.69 61.76 60.78 59.65 58.36 57.00 55.66 54.51 53.47 52.62 51.98 51.42 50.91 50.47 50.12 49.79 49.46 49.12 48.78 48.58 48.49 48.38 48.29 48.29 48.31 48.31 48.30 48.35 48.65 49.10 49.38 49.49 49.81 50.28 50.61 50.86 51.18 51.60 52.17 52.63 52.95 53.41 53.89 54.26 54.73 55.38 56.14 56.92 57.53 58.24 58.83 59.31 59.84 60.41 60.98 61.48 61.88 62.32 62.87 63.47 64.07 64.58 65.04 65.57 66.10 66.57 67.05 67.56 67.94 68.27 68.63 68.82 68.97 69.10 69.27 69.46 69.54 69.64 69.90 70.28 70.53 70.84 71.22 71.59 71.92 72.35 72.80 73.25 73.71 74.22 74.51 74.76 75.13 75.70 76.37 77.02 77.69 78.37 78.98 79.56 80.16 80.66 80.92 81.23 81.66 82.14 82.59 82.86 83.11 83.64 84.21 84.62 84.98 85.32 85.67 86.05 86.36 86.50 86.54 86.48 86.42 86.37 86.23 86.02 85.83 85.66 85.55 85.42 85.24 84.77 84.43 84.26 84.06 83.83 83.59 83.27 82.98 82.67 82.36 81.85 81.29 80.71 80.17 79.59 78.87 78.06 77.20 76.47 75.74 74.49 73.23 72.48 71.58 70.66 69.83 69.06 68.33 67.46 66.62 65.92 65.25 64.58 63.81 62.98 62.27 61.64 61.04 60.25 59.21 57.91 56.66 56.04 55.51 55.07 57.80 58.69 60.65 65.47 69.72 74.34 79.11 84.87 87.19 90.89 93.04 92.69 92.71 93.18 93.24 92.80 92.86 92.85 92.67 92.62 92.76 92.90 93.03 93.21 93.70 93.96 94.10 94.37 94.64 94.85 95.03 94.69 94.64 95.24 95.66 95.79 96.24 96.78 96.94 97.09 97.13 97.17 97.90 98.91 98.32 98.22 97.73 96.81 95.46 93.30 94.47 95.17 96.48 96.25 96.05 95.52 88.38 81.20 79.77 87.12 93.84 95.49 96.44 96.28 95.54 96.49 99.37 101.91 102.68 102.75 103.03 103.53 103.67 104.18 104.37 103.97 103.69 104.70 106.00 107.07 107.24 107.11 107.66 108.86 110.42 112.01 116.18 122.43 139.52 170.52 202.86 210.60 215.69 233.72 291.96 277.74 259.02 205.96 193.44 199.63 194.27 173.06 160.84 153.86 149.90 148.34 146.06 145.95 145.93 149.03 156.75 168.57 199.24 229.03 236.29 239.75 249.50 271.48 261.77 292.46 305.02 334.17 363.73 329.60 272.82 229.94 201.72 195.86 215.87 232.71 235.36 231.70 231.03 233.80 231.26 228.59 207.48 171.87 155.95 146.64 140.34 136.32 134.84 132.67 130.83 129.64 128.07 126.57 125.17 124.47 124.04 122.34 121.34 120.64 119.31 118.28 118.12 116.90 115.75 115.44 114.58 114.48 114.12 114.53 114.45 115.07 114.88 114.48 114.25 113.90 114.02 114.20 114.60 115.80 117.41
131.43 139.48 144.72 152.24 159.65 167.40 177.47 192.46 209.88 231.49 260.17 289.74 321.68 352.34 378.47 403.57 427.76 453.84 478.50 498.25 514.53 530.35 541.26 548.44 552.47 556.36 556.75 554.25 546.28 534.84 523.34 513.70 507.20 500.27 493.30 482.29 471.00 392.99 371.38 372.77 373.80 374.30 374.28 373.77 372.78 371.41 369.79 367.62 363.40 359.31 355.99 352.34 348.48 344.46 340.29 336.15 331.70 327.22 322.73 318.20 313.70 309.20 304.69 300.33 294.83 288.09 281.22 274.85 268.39 262.47 258.35 254.28 250.21 246.14 242.17 238.34 234.53 230.70 226.86 223.09 219.42 215.77 212.21 208.62 205.06 201.57 198.06 193.78 188.76 185.19 181.95 178.77 175.62 172.50 169.33 166.20 163.27 160.43 157.51 154.63 151.80 148.98 146.17 143.57 140.74 136.99 132.97 129.06 125.42 121.88 119.35 117.00 114.63 112.28 109.98 107.73 105.49 103.29 101.22 99.20 97.15 95.10 93.05 91.07 89.15 87.23 85.36 83.58 81.65 79.24 77.38 75.78 74.19 72.86 71.51 69.98 68.50 67.19 66.02 64.90 63.61 62.41 61.40 60.42 59.36 58.10 56.72 55.42 54.30 53.20 52.31 51.67 51.11 50.62 50.20 49.86 49.52 49.12 48.78 48.53 48.29 48.11 47.97 47.87 47.87 47.89 47.90 47.88 47.89 48.16 48.57 48.83 48.99 49.27 49.74 50.04 50.31 50.65 51.08 51.58 52.02 52.39 52.82 53.27 53.59 54.02 54.71 55.51 56.29 56.86 57.52 58.08 58.54 59.04 59.62 60.21 60.76 61.20 61.58 62.13 62.72 63.31 63.80 64.25 64.80 65.37 65.86 66.33 66.80 67.19 67.63 68.00 68.16 68.29 68.53 68.78 69.04 69.20 69.36 69.76 70.23 70.61 70.94 71.29 71.69 72.16 72.63 73.06 73.40 73.78 74.24 74.52 74.80 75.18 75.70 76.30 76.86 77.44 78.01 78.59 79.16 79.76 80.25 80.47 80.79 81.26 81.74 82.18 82.45 82.70 83.23 83.69 84.10 84.55 84.92 85.26 85.61 85.93 86.16 86.28 86.25 86.23 86.25 86.24 86.13 85.91 85.73 85.61 85.45 85.21 84.61 84.30 84.12 83.80 83.56 83.33 82.97 82.50 82.10 81.71 81.25 80.72 80.15 79.60 79.01 78.33 77.57 76.86 76.25 75.85 74.71 73.33 72.22 71.31 70.47 69.71 69.01 68.31 67.52 66.70 66.00 65.33 64.65 63.94 63.20 62.56 61.97 61.42 60.66 59.62 58.32 57.14 56.53 56.10 55.71 55.34 54.91 54.52 57.88 59.79 63.01 67.42 73.91 79.39 85.96 90.51 91.80 91.50 91.62 92.03 92.56 92.96 92.78 92.91 92.66 92.68 92.99 92.88 93.13 93.76 93.87 94.32 94.73 95.18 95.13 95.39 95.16 94.52 94.42 95.22 95.09 95.62 96.52 97.44 96.93 97.21 97.62 97.50 96.66 95.70 94.52 93.00 92.44 88.39 84.31 83.41 85.65 93.67 92.12 88.49 90.55 92.43 89.67 88.66 90.48 92.78 93.18 92.43 91.00 93.07 95.60 97.32 99.06 100.72 101.34 101.62 101.93 101.91 102.26 102.36 102.14 102.56 103.32 103.77 104.53 104.65 105.12 106.23 107.87 109.56 111.00 112.97 115.68 125.09 151.92 180.72 189.71 193.56 221.58 249.21 227.11 246.38 186.02 168.76 165.28 159.66 152.58 144.53 141.73 139.61 137.87 136.97 135.77 135.60 138.02 146.97 159.93 187.50 197.59 191.00 188.82 212.33 229.98 230.75 244.76 261.17 290.34 331.46 314.01 267.45 212.04 186.82 181.86 196.13 208.96 209.40 201.39 202.51 196.54 192.35 190.22 173.31 149.11 141.11 136.21 133.83 131.78 130.48 129.72 127.94 126.70 125.26 123.43 120.91 119.52 119.02 117.58 116.93 116.39 115.42 114.82 114.29 113.19 113.06 112.39 112.17 111.94 111.83 112.19 112.16 112.88 112.95 112.68 112.55 112.80 113.19 113.46 113.67 114.56 116.35
125.50 131.01 137.09 143.78 152.65 163.46 175.19 190.78 205.81 229.34 256.44 282.66 311.68 336.93 361.22 385.60 408.37 436.30 461.89 480.48 498.18 514.65 525.64 536.59 541.88 547.29 546.85 544.76 536.44 522.82 509.99 500.66 495.06 488.29 479.60 398.32 393.10 359.07 360.72 362.03 363.03 363.46 363.49 363.17 362.30 361.12 359.66 357.67 353.88 350.13 347.14 343.72 340.17 336.42 332.61 328.62 324.42 320.18 316.00 311.63 307.32 302.96 298.69 294.53 289.25 282.71 276.03 269.83 263.47 257.73 253.74 249.83 245.88 241.86 238.00 234.25 230.51 226.79 223.03 219.29 215.60 212.06 208.58 205.00 201.49 198.15 194.79 190.59 185.64 182.13 178.92 175.86 172.82 169.67 166.57 163.55 160.69 157.91 155.10 152.26 149.44 146.67 143.98 141.45 138.65 134.93 130.96 127.16 123.60 120.13 117.66 115.38 113.09 110.82 108.59 106.43 104.25 102.11 100.14 98.15 96.00 93.97 92.13 90.24 88.31 86.43 84.63 82.89 81.00 78.63 76.84 75.27 73.69 72.38 71.08 69.61 68.14 66.78 65.59 64.48 63.33 62.13 61.02 60.01 59.04 57.84 56.47 55.21 54.12 52.97 52.06 51.42 50.86 50.37 49.95 49.61 49.25 48.79 48.48 48.34 48.11 47.83 47.59 47.45 47.45 47.48 47.48 47.46 47.48 47.68 48.02 48.26 48.46 48.75 49.16 49.50 49.82 50.22 50.64 50.98 51.36 51.78 52.25 52.69 53.00 53.44 54.14 54.92 55.63 56.20 56.82 57.32 57.79 58.29 58.87 59.43 59.94 60.43 60.92 61.48 62.07 62.66 63.11 63.50 64.02 64.61 65.17 65.67 66.12 66.54 67.02 67.40 67.58 67.76 68.05 68.35 68.64 68.91 69.22 69.71 70.25 70.75 71.14 71.45 71.87 72.35 72.78 73.17 73.51 73.88 74.26 74.45 74.78 75.21 75.66 76.16 76.65 77.16 77.68 78.20 78.74 79.34 79.85 80.10 80.43 80.86 81.33 81.77 82.03 82.29 82.81 83.24 83.66 84.14 84.52 84.85 85.15 85.46 85.77 85.94 85.95 85.97 86.04 86.09 86.09 85.94 85.77 85.63 85.40 85.12 84.41 84.08 83.87 83.51 83.21 82.99 82.57 82.06 81.60 81.17 80.70 80.20 79.66 79.09 78.47 77.83 77.18 76.70 76.52 76.18 75.60 74.26 72.60 71.41 70.27 69.60 68.97 68.30 67.52 66.74 66.05 65.41 64.74 64.07 63.42 62.83 62.27 61.74 61.00 60.01 58.78 57.66 57.06 56.68 56.31 55.84 55.41 55.10 54.81 54.58 54.42 57.47 63.29 69.27 76.67 83.60 88.08 89.38 90.18 89.94 90.34 90.82 91.43 91.54 91.59 91.61 92.16 92.11 92.54 92.95 92.81 92.85 92.78 93.40 93.97 94.56 95.51 96.24 96.29 95.96 96.14 95.86 95.87 95.55 95.83 95.93 95.86 95.65 94.78 92.90 88.37 80.87 78.32 77.37 77.65 77.86 82.08 83.54 85.67 82.49 80.27 92.83 91.81 91.61 92.13 92.35 92.15 89.15 87.39 91.54 94.76 96.46 98.00 98.75 99.10 99.65 99.99 100.24 100.23 100.20 100.10 101.22 102.42 102.25 102.14 103.20 104.13 105.68 107.61 109.36 110.37 111.26 112.82 115.88 127.07 148.75 164.10 175.91 206.51 217.17 178.45 199.04 176.91 152.20 140.86 137.34 131.51 130.08 129.17 128.49 127.65 126.26 124.77 124.20 124.80 131.33 137.16 153.59 157.81 153.81 153.36 174.36 183.85 197.47 210.69 221.97 240.19 281.68 294.23 254.27 199.09 172.84 164.97 176.46 179.76 177.66 168.72 169.66 166.69 158.92 153.92 145.79 138.15 132.10 130.01 128.59 127.35 126.09 124.62 122.68 121.62 120.09 118.93 116.01 114.61 114.18 114.02 113.57 113.26 112.42 111.32 110.42 109.66 109.81 110.30 110.52 110.44 110.51 110.84 110.08 109.69 108.99 108.98 109.77 110.53 110.94 111.48 111.61 111.84 113.01
119.92 126.49 134.07 140.46 148.70 159.92 171.79 186.96 201.16 223.69 248.59 272.68 299.02 321.00 344.37 367.54 391.66 418.13 441.73 459.53 477.13 494.51 506.82 520.14 526.86 532.33 533.01 531.29 522.65 509.92 497.91 489.12 483.30 475.80 404.67 361.90 345.66 347.55 349.14 350.42 351.27 351.62 351.64 351.41 350.68 349.64 348.22 346.34 343.05 339.56 336.68 333.71 330.42 326.95 323.33 319.49 315.60 311.70 307.78 303.65 299.52 295.31 291.27 287.34 282.28 275.92 269.45 263.41 257.24 251.77 247.85 244.01 240.15 236.30 232.56 228.83 225.04 221.33 217.77 214.19 210.56 207.03 203.57 200.11 196.73 193.46 190.23 186.13 181.23 177.92 174.89 171.69 168.60 165.67 162.73 159.77 156.92 154.14 151.38 148.68 146.00 143.36 140.74 138.30 135.58 131.98 128.17 124.51 121.11 117.72 115.35 113.15 111.00 108.88 106.78 104.55 102.45 100.45 98.50 96.60 94.60 92.68 90.95 89.09 87.18 85.48 83.80 82.09 80.19 77.84 76.08 74.58 73.09 71.76 70.40 68.97 67.65 66.38 65.18 64.00 62.91 61.79 60.63 59.63 58.78 57.55 56.15 54.92 53.84 52.65 51.81 51.19 50.63 50.11 49.66 49.26 48.89 48.45 48.16 48.06 47.81 47.52 47.25 47.05 47.06 47.08 47.05 47.05 47.09 47.23 47.51 47.76 47.97 48.26 48.59 48.91 49.28 49.73 50.12 50.35 50.70 51.18 51.66 52.10 52.43 52.87 53.56 54.29 54.98 55.54 56.14 56.61 57.06 57.58 58.16 58.67 59.12 59.68 60.26 60.84 61.42 62.01 62.44 62.80 63.31 63.90 64.49 65.02 65.49 65.97 66.48 66.85 67.09 67.33 67.65 67.99 68.33 68.70 69.17 69.70 70.27 70.86 71.31 71.63 72.05 72.50 72.88 73.23 73.57 73.90 74.23 74.38 74.72 75.19 75.56 75.96 76.43 76.91 77.38 77.84 78.34 78.93 79.44 79.76 80.08 80.48 80.91 81.35 81.62 81.89 82.40 82.83 83.25 83.72 84.11 84.43 84.67 84.98 85.32 85.54 85.60 85.69 85.77 85.88 85.94 85.89 85.75 85.53 85.28 84.94 84.17 83.78 83.53 83.10 82.79 82.58 82.10 81.57 81.18 80.74 80.21 79.72 79.23 78.62 77.97 77.38 76.89 76.81 76.84 76.83 76.91 75.88 74.33 72.69 70.89 69.90 68.93 68.29 67.51 66.74 66.09 65.49 64.88 64.27 63.65 63.08 62.51 61.98 61.28 60.36 59.29 58.24 57.65 57.22 56.80 56.31 55.92 55.67 55.38 55.09 54.93 54.84 54.79 60.10 66.19 73.17 79.08 84.63 91.34 91.98 91.79 90.83 89.95 90.03 90.05 89.93 90.29 90.49 90.81 91.61 92.19 92.81 93.90 94.41 94.74 95.46 95.04 94.58 93.91 93.63 93.53 93.20 93.26 93.91 93.85 93.90 93.64 92.77 92.39 90.51 82.95 78.10 76.37 75.49 75.09 75.65 78.23 84.48 82.88 80.69 78.83 83.48 88.04 91.43 91.95 92.03 91.35 88.67 87.63 89.40 92.75 95.01 96.45 96.62 96.63 95.76 96.74 97.84 98.05 97.69 97.11 99.46 100.65 100.74 100.92 101.35 102.77 104.06 107.00 108.77 109.16 110.30 111.78 113.83 119.20 127.41 133.88 151.99 175.67 176.81 156.34 173.97 160.05 137.89 126.16 120.47 118.73 117.92 117.34 117.22 115.93 115.03 114.42 113.69 113.79 114.87 118.25 123.64 126.07 126.78 130.61 141.52 144.53 157.65 175.16 193.41 212.78 250.20 251.34 225.35 184.92 161.55 149.86 150.61 152.23 149.61 143.92 143.88 141.32 134.63 131.03 129.26 126.72 124.85 123.44 122.18 120.87 119.60 116.97 115.24 114.09 113.33 113.11 112.70 112.48 112.40 111.62 110.36 108.99 108.78 107.92 107.12 106.80 107.69 108.21 108.22 109.09 109.51 107.97 106.90 105.41 101.73 101.72 105.02 105.38 105.67 107.40 108.26 108.95 108.45
116.09 124.18 130.36 136.57 144.32 155.52 167.25 181.59 193.96 213.04 234.50 257.71 281.95 302.77 326.43 349.92 375.03 401.81 422.83 441.67 459.14 475.68 490.92 503.83 511.74 516.72 517.55 516.01 510.02 499.45 487.77 478.88 472.00 464.76 373.66 334.22 336.13 337.83 339.29 340.46 341.23 341.51 341.47 341.22 340.60 339.56 338.16 336.37 333.30 330.14 327.42 324.55 321.48 318.21 314.75 311.14 307.47 303.76 299.96 296.01 292.04 288.07 284.17 280.36 275.41 269.33 262.99 257.05 251.08 245.86 242.05 238.16 234.36 230.66 227.00 223.35 219.67 216.04 212.51 208.99 205.48 202.12 198.78 195.40 192.06 188.79 185.60 181.58 176.78 173.61 170.65 167.57 164.57 161.73 158.88 155.99 153.18 150.43 147.83 145.25 142.60 140.02 137.49 135.20 132.58 129.10 125.43 121.88 118.53 115.23 112.94 110.82 108.79 106.81 104.75 102.57 100.56 98.71 96.78 94.88 93.05 91.28 89.58 87.74 85.88 84.32 82.81 81.11 79.21 76.99 75.21 73.80 72.42 71.01 69.65 68.33 67.09 65.94 64.73 63.54 62.49 61.43 60.26 59.28 58.47 57.25 55.79 54.54 53.49 52.34 51.51 50.94 50.38 49.83 49.31 48.85 48.44 48.05 47.76 47.58 47.42 47.24 46.92 46.68 46.69 46.67 46.58 46.60 46.70 46.75 47.09 47.36 47.51 47.71 47.98 48.24 48.53 48.90 49.26 49.56 49.96 50.43 50.85 51.23 51.56 51.99 52.60 53.29 53.98 54.52 55.20 55.73 56.11 56.58 57.17 57.68 58.13 58.64 59.16 59.74 60.32 60.90 61.44 61.92 62.46 63.03 63.56 64.07 64.60 65.27 65.86 66.23 66.53 66.85 67.22 67.66 68.13 68.61 69.15 69.71 70.29 70.87 71.40 71.83 72.24 72.66 73.02 73.34 73.58 73.76 74.02 74.29 74.55 74.90 75.24 75.70 76.20 76.65 77.05 77.50 77.98 78.43 78.94 79.38 79.75 80.06 80.42 80.84 81.11 81.38 81.90 82.34 82.74 83.17 83.58 83.92 84.12 84.36 84.71 84.96 85.11 85.27 85.44 85.59 85.70 85.71 85.60 85.36 85.07 84.66 83.87 83.40 83.08 82.61 82.31 82.10 81.60 81.04 80.67 80.26 79.69 79.18 78.72 78.10 77.46 76.91 76.79 77.01 77.34 77.36 77.88 77.32 76.33 74.53 72.71 70.92 69.09 68.44 67.56 66.79 66.18 65.60 65.04 64.46 63.89 63.32 62.74 62.20 61.54 60.73 59.78 58.82 58.22 57.74 57.28 56.81 56.46 56.24 55.93 55.59 55.43 55.32 55.21 55.84 58.15 63.21 67.95 74.24 82.00 87.80 92.53 92.38 92.37 92.39 91.88 91.67 91.94 92.00 92.17 92.16 92.58 92.71 92.22 92.48 92.54 92.65 92.41 92.25 91.59 91.51 91.03 90.91 90.64 89.20 88.42 90.35 88.23 85.33 85.18 89.79 84.34 76.41 75.39 76.99 76.68 76.13 77.97 82.53 84.14 81.75 80.61 82.54 86.86 89.26 90.96 91.65 90.80 89.46 89.53 89.55 90.81 93.41 94.18 93.80 93.27 93.24 93.19 94.53 92.78 94.15 92.85 96.47 98.29 98.90 99.30 99.15 100.00 99.44 103.04 106.28 104.76 104.57 107.16 110.13 113.70 114.63 117.96 123.99 143.07 136.87 125.12 138.60 134.25 122.06 114.58 110.28 108.16 107.44 107.01 107.05 106.84 107.15 107.44 107.64 108.10 109.15 109.72 110.69 110.88 111.96 109.83 117.21 125.65 129.48 129.24 158.92 185.04 203.07 201.07 194.76 163.31 144.55 138.34 134.35 133.17 130.87 129.30 127.17 125.38 123.89 121.41 120.22 117.94 116.09 114.80 113.32 112.15 111.27 110.79 110.87 110.06 110.53 110.59 109.98 109.41 109.93 109.60 108.24 106.61 105.29 104.52 103.69 103.95 105.31 106.15 105.45 105.28 104.86 104.53 103.12 87.38 79.87 84.79 100.94 102.09 103.55 103.56 104.09 103.66 102.99
113.03 121.45 127.40 133.73 142.04 151.30 161.35 173.96 185.69 202.30 221.13 242.74 264.28 285.98 309.84 333.74 359.74 381.71 403.40 424.20 442.27 458.28 474.80 488.33 496.92 502.17 503.80 503.49 497.88 490.12 478.10 468.61 461.58 454.60 392.83 341.48 328.99 330.58 331.96 333.09 333.87 334.15 334.12 333.84 333.26 332.32 330.97 329.25 326.44 323.48 320.86 318.05 315.12 312.03 308.72 305.29 301.82 298.23 294.49 290.68 286.85 283.10 279.35 275.54 270.67 264.79 258.59 252.77 246.92 241.91 238.16 234.20 230.41 226.80 223.17 219.58 216.01 212.46 208.84 205.31 201.94 198.70 195.45 192.08 188.71 185.43 182.21 178.17 173.53 170.35 167.41 164.46 161.63 158.80 155.96 153.10 150.32 147.68 145.18 142.67 139.96 137.41 134.98 132.74 130.25 126.87 123.29 119.81 116.46 113.20 110.97 108.97 107.00 104.98 102.96 100.90 99.05 97.28 95.38 93.48 91.72 90.02 88.33 86.57 84.75 83.25 81.79 80.14 78.40 76.23 74.50 73.10 71.77 70.44 69.16 67.82 66.60 65.50 64.31 63.15 62.16 61.16 59.99 59.00 58.15 56.92 55.48 54.22 53.18 52.17 51.32 50.68 50.12 49.64 49.17 48.66 48.17 47.77 47.42 47.15 47.02 46.90 46.62 46.39 46.42 46.34 46.17 46.24 46.44 46.44 46.64 46.84 47.00 47.16 47.36 47.62 47.91 48.20 48.52 48.87 49.31 49.77 50.11 50.43 50.75 51.18 51.75 52.40 53.04 53.69 54.35 54.79 55.18 55.62 56.18 56.71 57.19 57.70 58.22 58.79 59.38 59.96 60.54 61.09 61.67 62.23 62.74 63.26 63.83 64.53 65.24 65.61 66.00 66.39 66.83 67.34 67.94 68.50 69.05 69.70 70.28 70.87 71.43 71.98 72.41 72.77 73.11 73.39 73.53 73.63 73.66 73.95 74.16 74.38 75.01 75.46 75.99 76.33 76.70 77.13 77.56 77.93 78.37 78.92 79.33 79.57 79.88 80.23 80.49 80.78 81.28 81.72 82.08 82.43 82.86 83.26 83.43 83.61 83.86 84.16 84.47 84.71 84.90 85.13 85.30 85.33 85.22 84.98 84.61 84.17 83.45 82.88 82.45 81.98 81.68 81.48 80.97 80.41 79.97 79.51 78.94 78.38 77.85 77.35 76.82 76.36 76.60 77.17 77.99 77.67 77.37 77.17 77.51 76.62 75.69 74.31 73.31 71.93 69.51 67.76 66.55 65.85 65.27 64.74 64.24 63.68 63.11 62.62 62.04 61.30 60.40 59.43 58.83 58.39 58.05 57.70 57.37 56.99 56.63 56.29 56.06 55.92 55.80 55.70 56.90 56.77 57.78 62.05 66.89 77.53 86.80 88.52 88.61 89.71 89.96 90.22 90.00 89.98 89.86 89.57 89.69 89.53 89.26 88.84 88.22 88.27 88.26 88.34 88.00 87.36 86.17 85.34 84.59 84.31 83.64 84.84 82.28 80.04 79.43 82.63 83.51 79.46 78.12 79.49 78.65 78.86 80.93 81.54 81.52 81.80 82.09 83.47 84.48 85.07 88.13 89.63 89.73 89.59 88.85 88.69 89.91 91.83 91.38 89.72 88.32 89.25 89.27 89.60 86.11 88.60 89.26 91.97 94.03 94.59 94.67 94.31 94.28 92.73 95.37 98.47 98.16 94.30 96.30 99.78 101.95 106.80 107.36 105.70 117.04 116.03 106.52 108.72 111.55 106.55 103.27 100.93 99.63 99.88 100.13 101.12 101.71 102.52 103.65 104.56 105.35 105.94 107.00 106.94 106.34 103.88 104.26 104.91 105.83 112.62 119.14 149.77 180.00 163.91 157.28 156.58 138.67 130.48 128.80 126.83 124.02 123.52 121.67 120.22 118.71 116.71 114.16 112.54 110.00 108.90 108.57 108.98 108.91 108.68 108.38 108.07 107.94 108.32 108.28 107.21 106.40 105.01 104.18 103.13 103.82 101.72 99.72 100.37 100.57 101.86 102.19 102.17 102.92 102.62 101.36 99.95 93.29 89.53 86.70 85.73 86.22 81.46 82.70 83.73 99.29 99.84
110.19 117.61 123.77 131.31 139.21 147.61 156.30 167.22 178.76 193.37 209.78 230.72 250.61 270.74 294.51 318.21 343.30 363.74 384.15 405.79 424.07 439.82 456.65 471.48 480.79 487.30 490.36 491.49 486.09 477.65 466.60 458.28 450.99 445.40 437.19 332.81 321.96 323.45 324.73 325.81 326.57 326.89 326.87 326.58 326.02 325.16 323.97 322.39 319.70 316.86 314.35 311.69 308.86 305.88 302.77 299.50 296.14 292.66 289.06 285.39 281.69 278.09 274.44 270.69 265.91 260.19 254.21 248.51 242.76 237.82 234.16 230.30 226.63 223.12 219.53 215.93 212.42 208.93 205.38 201.95 198.66 195.41 192.21 188.88 185.56 182.34 179.14 175.13 170.58 167.45 164.58 161.80 159.03 156.22 153.42 150.61 147.88 145.27 142.87 140.39 137.71 135.22 132.90 130.71 128.25 124.97 121.47 118.08 114.79 111.56 109.43 107.48 105.52 103.50 101.52 99.60 97.84 96.13 94.27 92.38 90.68 89.00 87.30 85.62 83.95 82.42 80.94 79.36 77.67 75.70 74.00 72.58 71.25 70.09 68.90 67.53 66.27 65.15 63.99 62.89 61.95 60.99 59.83 58.81 57.90 56.69 55.31 54.06 53.05 52.13 51.20 50.50 49.94 49.55 49.18 48.64 48.10 47.64 47.24 46.93 46.77 46.65 46.41 46.24 46.26 46.15 45.94 46.04 46.26 46.28 46.33 46.42 46.63 46.80 46.94 47.23 47.55 47.81 48.08 48.42 48.86 49.32 49.61 49.88 50.19 50.61 51.19 51.81 52.40 53.15 53.73 54.06 54.49 54.94 55.42 55.95 56.50 57.06 57.59 58.17 58.75 59.32 59.91 60.49 61.06 61.63 62.16 62.71 63.27 64.02 64.73 65.09 65.56 66.07 66.52 67.07 67.74 68.33 68.90 69.62 70.30 70.87 71.45 72.03 72.47 72.80 73.10 73.33 73.42 73.35 73.22 73.41 73.53 73.83 74.75 75.43 75.70 75.92 76.36 76.77 77.14 77.47 77.87 78.41 78.84 79.12 79.38 79.65 79.94 80.26 80.70 81.13 81.44 81.72 82.06 82.42 82.67 82.89 83.09 83.41 83.79 83.99 84.12 84.36 84.57 84.63 84.57 84.39 84.04 83.61 82.95 82.26 81.77 81.36 81.02 80.71 80.27 79.79 79.28 78.76 78.18 77.63 77.12 76.63 76.12 76.06 76.46 76.75 77.00 77.72 76.57 76.74 77.46 76.85 76.18 76.23 77.15 76.04 73.14 70.87 69.26 67.92 66.32 65.03 64.68 64.13 63.55 63.09 62.57 61.89 61.01 60.06 59.49 59.11 58.81 58.53 58.19 57.76 57.41 57.09 56.84 56.59 56.46 56.27 56.03 58.08 58.55 59.48 62.22 72.09 79.25 82.83 83.45 84.60 85.08 85.22 86.02 86.05 86.28 86.25 84.93 84.44 84.08 83.98 83.45 83.10 82.80 83.47 82.07 81.00 79.86 78.34 78.01 79.27 80.68 81.36 79.85 79.10 78.65 78.09 80.61 82.06 80.68 82.38 81.18 82.25 82.06 80.79 80.02 80.54 80.88 81.97 81.68 81.91 83.88 86.59 87.77 88.52 89.07 89.30 89.71 90.34 88.74 86.21 85.40 85.55 84.90 86.10 83.33 85.11 84.37 86.06 85.67 85.92 85.75 85.63 84.85 87.02 87.51 87.20 86.78 86.26 85.76 87.51 87.51 90.66 95.03 97.27 98.42 99.13 99.44 97.34 94.86 93.69 92.94 92.83 92.92 93.38 95.65 97.06 97.86 98.78 99.58 100.70 101.84 102.77 102.98 102.48 101.59 100.79 99.89 99.82 99.98 100.89 102.68 111.29 122.65 120.60 121.11 120.01 119.75 117.39 115.86 115.58 113.86 112.89 111.49 110.65 109.81 108.81 107.50 106.71 105.99 105.34 104.97 104.88 104.80 104.99 105.05 105.50 105.34 105.31 104.68 103.67 102.67 102.10 101.51 100.22 99.83 97.84 92.27 89.50 85.59 88.94 91.18 89.57 91.59 92.68 91.43 88.51 85.58 83.55 83.41 83.74 84.10 77.75 76.41 76.24 83.47 84.09
108.01 114.07 121.05 127.58 134.77 143.04 151.57 161.86 172.89 186.07 200.25 218.89 236.84 255.86 278.86 301.83 324.47 344.68 367.20 389.85 407.76 423.05 438.12 454.15 465.63 472.16 472.91 471.93 467.88 459.95 451.26 445.56 437.80 430.60 421.35 323.75 315.10 316.51 317.69 318.69 319.43 319.80 319.82 319.52 318.96 318.16 317.16 315.73 313.10 310.34 307.99 305.45 302.71 299.85 296.86 293.78 290.53 287.15 283.66 280.18 276.60 273.11 269.53 265.88 261.18 255.61 249.82 244.31 238.63 233.70 230.13 226.43 222.94 219.52 215.93 212.32 208.81 205.37 201.96 198.67 195.45 192.13 188.88 185.61 182.40 179.28 176.14 172.17 167.68 164.63 161.81 159.06 156.35 153.67 150.94 148.17 145.49 142.90 140.45 138.00 135.45 133.06 130.79 128.62 126.17 122.96 119.58 116.37 113.13 110.00 107.98 106.00 104.03 102.10 100.17 98.32 96.58 94.89 93.09 91.29 89.63 87.99 86.33 84.76 83.21 81.68 80.16 78.72 77.10 75.08 73.46 72.10 70.81 69.68 68.52 67.23 66.01 64.88 63.72 62.62 61.69 60.75 59.64 58.63 57.70 56.51 55.18 53.99 53.02 52.01 51.07 50.38 49.82 49.43 49.05 48.50 47.95 47.51 47.12 46.79 46.59 46.45 46.23 46.06 46.06 45.93 45.73 45.78 45.98 46.04 46.02 46.13 46.38 46.55 46.63 46.89 47.21 47.48 47.76 48.04 48.45 48.90 49.15 49.38 49.71 50.17 50.75 51.35 51.92 52.66 53.15 53.44 53.92 54.38 54.82 55.34 55.93 56.49 57.05 57.63 58.21 58.78 59.36 59.93 60.53 61.11 61.69 62.27 62.86 63.62 64.33 64.73 65.29 65.84 66.31 66.87 67.56 68.18 68.78 69.55 70.30 70.88 71.45 72.03 72.45 72.77 73.05 73.21 73.19 73.04 72.79 72.78 72.84 73.17 74.29 75.10 75.19 75.41 76.06 76.48 76.82 77.15 77.53 78.00 78.43 78.76 79.01 79.25 79.59 79.93 80.31 80.72 81.01 81.24 81.48 81.75 82.08 82.39 82.61 82.92 83.27 83.39 83.42 83.63 83.85 83.97 83.96 83.82 83.54 83.16 82.49 81.74 81.26 80.90 80.52 80.09 79.71 79.32 78.79 78.22 77.64 77.12 76.66 76.13 75.69 75.76 76.50 76.98 76.51 76.34 76.29 76.07 76.28 76.60 76.03 75.77 76.81 78.05 75.34 73.26 72.76 71.03 68.88 66.91 66.23 64.87 63.93 63.48 62.97 62.38 61.50 60.58 60.06 59.70 59.40 59.10 58.75 58.35 58.57 59.84 59.76 60.17 60.25 60.13 60.89 62.82 64.02 65.40 67.11 71.14 76.71 78.41 79.21 79.56 79.75 80.36 81.91 82.54 82.92 82.92 81.63 80.13 79.67 79.63 79.58 78.59 78.14 77.32 76.52 74.85 74.70 73.81 75.04 76.29 78.74 80.58 80.68 81.31 80.74 79.57 78.11 78.06 80.93 84.56 84.62 83.45 81.52 78.30 79.31 78.82 77.00 79.25 81.71 82.59 83.31 84.12 84.90 86.41 87.65 88.79 89.50 89.92 87.19 85.05 86.45 84.60 83.78 83.86 83.06 82.15 81.54 79.92 78.01 78.06 78.36 78.53 81.77 82.78 82.34 80.40 76.95 79.68 80.29 80.87 78.88 79.18 83.49 88.08 88.98 91.34 91.49 89.02 85.81 87.38 88.28 88.91 89.22 89.13 90.55 93.42 94.97 96.50 97.47 97.66 98.56 99.00 99.77 99.64 99.25 98.82 97.84 97.64 97.61 97.70 97.83 97.36 100.38 99.45 99.27 97.51 97.42 100.51 103.54 103.26 101.40 101.53 102.77 104.04 104.58 104.39 103.98 103.07 102.99 102.65 102.68 102.61 102.40 101.86 101.35 101.16 101.42 101.10 100.41 100.24 99.11 98.57 98.18 97.56 96.90 94.42 82.64 77.92 74.35 77.88 78.52 82.34 84.21 86.86 85.81 83.37 80.50 77.17 76.78 77.57 78.55 82.54 80.28 77.79 75.40 74.64
105.56 111.11 116.77 123.42 130.41 137.67 145.68 156.40 168.33 181.30 194.14 207.60 223.27 242.10 263.85 285.03 306.39 326.99 350.41 373.18 391.13 402.41 415.69 432.52 444.15 449.35 449.15 448.00 446.84 441.91 435.06 429.04 422.42 415.59 406.97 315.15 308.44 309.76 310.86 311.76 312.45 312.83 312.86 312.60 312.08 311.32 310.39 309.02 306.48 303.94 301.67 299.25 296.64 293.85 291.06 288.12 284.96 281.70 278.37 275.01 271.53 268.13 264.65 261.12 256.54 251.06 245.38 240.10 234.53 229.65 226.10 222.63 219.23 215.86 212.30 208.74 205.21 201.83 198.55 195.36 192.22 188.89 185.56 182.36 179.26 176.22 173.22 169.27 164.86 161.87 159.08 156.35 153.70 151.10 148.44 145.74 143.12 140.54 138.05 135.62 133.24 130.93 128.68 126.50 124.08 120.94 117.69 114.61 111.47 108.49 106.56 104.55 102.54 100.70 98.88 97.05 95.31 93.62 91.90 90.21 88.60 87.00 85.39 83.94 82.53 80.97 79.42 78.15 76.56 74.44 72.94 71.64 70.38 69.25 68.12 66.92 65.76 64.63 63.47 62.36 61.42 60.49 59.44 58.46 57.53 56.36 55.09 53.97 53.01 51.87 50.97 50.30 49.74 49.30 48.88 48.31 47.78 47.41 47.05 46.72 46.49 46.28 46.06 45.88 45.82 45.71 45.56 45.57 45.65 45.77 45.76 45.90 46.21 46.37 46.38 46.58 46.90 47.21 47.49 47.66 48.02 48.49 48.70 48.89 49.26 49.76 50.35 50.94 51.51 52.10 52.52 52.84 53.38 53.86 54.25 54.75 55.36 55.87 56.41 56.99 57.57 58.14 58.71 59.29 59.92 60.54 61.12 61.74 62.42 63.22 63.98 64.48 65.04 65.60 66.11 66.69 67.39 68.08 68.76 69.57 70.32 70.89 71.46 72.06 72.47 72.74 72.98 73.05 72.84 72.53 72.23 72.13 71.98 72.03 72.73 73.47 73.98 74.65 75.58 76.17 76.56 76.86 77.17 77.59 77.99 78.34 78.63 78.91 79.22 79.53 79.90 80.31 80.60 80.82 81.00 81.21 81.48 81.79 82.07 82.34 82.56 82.66 82.75 82.93 83.14 83.32 83.33 83.17 82.91 82.58 81.85 81.16 80.72 80.39 79.98 79.52 79.15 78.75 78.24 77.69 77.18 76.70 76.20 75.67 75.16 75.17 75.86 75.89 75.83 75.82 75.65 75.87 75.05 75.13 75.86 75.43 75.71 77.65 75.26 74.74 75.96 74.25 72.07 70.15 68.75 67.08 66.18 65.50 64.32 62.73 61.88 61.02 60.57 60.84 60.84 61.32 61.18 61.14 61.76 64.44 66.10 67.17 67.46 67.68 68.11 69.72 70.85 73.08 74.91 74.85 75.25 74.63 75.27 75.48 75.79 76.68 78.00 79.43 79.36 80.06 79.86 78.63 77.94 76.93 76.68 76.67 75.93 75.30 73.98 71.89 70.71 73.79 75.41 76.20 77.24 77.28 78.05 77.43 78.79 80.81 80.79 79.04 80.79 84.04 84.05 80.90 81.48 80.41 79.11 79.19 79.14 79.29 81.55 81.93 82.44 82.78 84.38 84.70 86.76 88.20 88.58 89.40 87.31 85.25 85.27 84.16 83.36 82.11 81.44 80.64 81.10 77.03 74.20 75.81 77.64 78.99 80.37 78.39 76.95 76.86 76.27 79.01 77.73 76.90 76.66 76.93 79.72 82.91 81.64 84.78 85.43 84.15 83.03 84.91 86.17 87.14 87.23 86.86 87.07 86.11 84.65 81.75 82.17 85.37 90.80 94.05 96.39 96.40 96.04 96.84 96.95 96.35 95.49 95.63 95.24 94.70 94.00 92.76 91.61 89.67 89.50 91.00 92.84 94.04 94.89 95.60 97.14 99.05 100.51 100.94 101.03 100.83 100.76 100.79 100.88 100.94 100.76 99.86 98.50 97.22 97.36 97.00 97.20 97.16 96.66 95.79 95.44 95.27 95.12 93.00 83.72 73.69 71.64 74.40 74.62 78.94 80.09 81.48 81.91 82.71 81.39 77.85 73.23 72.28 73.39 78.33 83.18 81.66 75.21 73.61
101.44 106.89 113.71 120.25 125.57 133.29 143.65 153.32 163.52 175.94 189.07 201.13 214.35 232.40 252.55 271.03 290.71 310.79 332.81 353.57 371.04 385.56 400.66 413.43 422.66 429.03 431.40 431.99 430.60 427.10 421.69 416.15 410.81 405.60 398.74 361.21 301.93 303.19 304.23 305.03 305.63 306.00 306.06 305.85 305.36 304.64 303.71 302.39 299.95 297.61 295.41 293.12 290.63 288.04 285.41 282.53 279.45 276.32 273.14 269.85 266.53 263.19 259.82 256.42 251.98 246.56 241.04 235.88 230.44 225.71 222.27 218.84 215.47 212.10 208.63 205.10 201.72 198.37 195.10 191.96 188.88 185.59 182.33 179.18 176.16 173.24 170.31 166.46 162.13 159.17 156.38 153.65 151.00 148.41 145.84 143.28 140.72 138.19 135.76 133.39 131.09 128.82 126.58 124.46 122.09 119.00 115.83 112.87 109.82 106.90 105.00 103.03 101.08 99.31 97.57 95.84 94.11 92.41 90.79 89.18 87.63 86.06 84.52 83.11 81.74 80.23 78.72 77.46 75.86 73.83 72.39 71.17 69.96 68.81 67.70 66.58 65.46 64.31 63.19 62.15 61.21 60.28 59.24 58.31 57.45 56.31 55.05 53.91 52.88 51.72 50.89 50.26 49.70 49.22 48.73 48.17 47.69 47.34 47.01 46.68 46.41 46.18 45.94 45.74 45.61 45.50 45.41 45.37 45.39 45.53 45.55 45.67 46.02 46.16 46.15 46.33 46.64 46.97 47.18 47.29 47.61 48.07 48.28 48.43 48.84 49.36 49.94 50.53 51.08 51.49 51.90 52.32 52.87 53.36 53.70 54.19 54.77 55.26 55.75 56.31 56.90 57.47 58.05 58.63 59.30 59.96 60.53 61.19 61.98 62.81 63.65 64.25 64.81 65.38 65.93 66.54 67.22 67.98 68.77 69.59 70.33 70.89 71.47 72.07 72.43 72.65 72.86 72.85 72.34 71.89 71.62 71.49 71.08 70.67 70.86 71.46 72.67 73.83 75.09 75.86 76.32 76.57 76.83 77.20 77.57 77.92 78.27 78.58 78.85 79.11 79.48 79.90 80.20 80.41 80.56 80.73 80.86 81.13 81.48 81.70 81.75 81.93 82.07 82.22 82.40 82.64 82.63 82.44 82.21 81.91 81.12 80.53 80.14 79.81 79.41 78.94 78.54 78.10 77.59 77.14 76.74 76.25 75.71 75.22 74.70 74.40 74.74 74.90 74.80 74.81 74.67 75.93 74.75 74.58 74.78 75.82 75.61 76.39 75.79 75.48 77.31 76.42 74.98 73.53 72.33 71.48 70.73 69.62 68.24 65.95 64.05 63.30 62.96 63.17 65.34 66.20 66.65 67.64 69.07 71.77 73.69 75.18 75.23 75.55 76.02 76.00 76.47 78.39 79.91 78.69 74.41 72.28 71.48 72.25 72.10 72.35 72.95 75.28 76.70 78.73 78.99 78.23 77.22 75.48 74.49 73.40 72.31 71.34 70.46 71.89 73.41 72.88 75.00 75.91 76.89 78.29 78.18 78.94 80.16 80.53 80.67 79.90 80.04 81.43 81.91 79.97 79.27 79.34 79.05 79.67 79.11 78.98 80.38 80.81 82.07 82.67 83.40 84.11 86.27 87.03 86.77 88.65 87.26 85.54 84.83 82.13 82.23 81.26 79.95 76.76 77.02 74.80 71.19 74.36 76.11 76.48 76.85 74.91 73.44 73.63 75.24 75.94 75.68 75.12 76.03 77.29 77.71 78.51 78.27 79.67 80.14 80.26 79.54 82.80 83.15 82.05 82.53 82.61 81.87 79.60 78.05 75.51 75.30 77.68 81.21 84.82 87.36 88.20 87.31 92.89 93.84 95.00 93.86 93.33 93.26 93.16 92.43 91.11 89.17 87.61 86.73 86.20 86.20 88.67 90.81 92.45 94.33 96.13 96.68 97.39 98.11 98.81 99.17 98.81 99.11 99.10 98.63 96.74 95.19 94.24 93.81 93.27 94.33 95.28 94.85 93.55 93.66 94.50 95.13 93.92 89.88 79.50 74.63 75.53 77.89 78.73 78.17 76.21 78.18 81.06 81.92 80.92 75.92 71.01 69.55 75.07 82.29 83.59 75.20 71.04
101.10 106.79 112.46 117.39 123.44 132.91 143.87 153.27 163.05 174.12 183.85 195.35 207.76 225.01 244.03 260.49 280.10 299.23 319.66 337.62 354.49 370.22 385.50 396.11 405.62 413.47 416.03 417.75 416.10 412.59 409.35 405.70 400.29 397.11 390.35 380.41 295.51 296.73 297.75 298.51 299.03 299.36 299.43 299.28 298.85 298.15 297.19 295.84 293.67 291.35 289.36 287.11 284.75 282.29 279.78 277.02 274.03 271.01 267.96 264.80 261.53 258.27 255.02 251.76 247.38 242.13 236.69 231.67 226.38 221.83 218.45 215.05 211.68 208.31 204.91 201.52 198.23 194.94 191.66 188.53 185.49 182.33 179.16 176.06 173.10 170.26 167.44 163.71 159.45 156.50 153.70 150.97 148.29 145.69 143.21 140.82 138.33 135.86 133.55 131.26 128.99 126.72 124.49 122.45 120.18 117.12 114.01 111.15 108.19 105.27 103.39 101.51 99.65 97.93 96.28 94.64 92.94 91.24 89.71 88.18 86.68 85.16 83.67 82.26 80.90 79.48 78.04 76.73 75.17 73.25 71.86 70.70 69.53 68.38 67.29 66.22 65.12 63.97 62.91 61.98 61.05 60.10 59.05 58.19 57.38 56.31 55.04 53.80 52.70 51.61 50.85 50.26 49.70 49.16 48.64 48.10 47.67 47.33 47.00 46.67 46.40 46.16 45.88 45.62 45.44 45.32 45.29 45.26 45.27 45.36 45.37 45.45 45.71 45.85 45.90 46.13 46.43 46.65 46.79 46.92 47.25 47.67 47.88 48.06 48.44 48.93 49.47 50.03 50.54 50.94 51.41 51.85 52.36 52.81 53.18 53.65 54.20 54.66 55.13 55.69 56.28 56.85 57.45 58.08 58.77 59.45 60.00 60.70 61.56 62.42 63.26 63.88 64.48 65.08 65.69 66.37 67.13 67.90 68.69 69.48 70.25 70.92 71.46 71.92 72.22 72.43 72.61 72.50 71.81 71.27 71.08 70.99 70.49 69.96 69.93 70.58 71.97 73.48 74.91 75.63 75.99 76.30 76.60 76.91 77.25 77.60 77.91 78.21 78.44 78.69 79.10 79.51 79.79 80.02 80.14 80.23 80.29 80.50 80.80 80.95 80.96 81.13 81.34 81.48 81.62 81.85 81.86 81.62 81.46 81.20 80.40 79.85 79.53 79.20 78.79 78.33 77.89 77.45 76.99 76.57 76.23 75.76 75.25 74.75 74.28 73.71 73.63 73.56 73.60 73.61 73.85 76.35 75.48 74.79 74.40 75.70 75.91 76.36 77.27 75.91 77.26 77.01 76.68 75.80 75.91 76.24 75.73 74.52 73.54 71.77 70.30 69.89 69.79 70.59 71.97 72.75 73.29 75.17 76.92 78.98 80.38 81.45 80.61 80.94 81.04 79.46 78.21 77.42 77.33 77.09 75.89 72.47 71.13 70.56 70.30 71.07 71.14 72.86 74.00 74.69 76.16 76.06 74.65 73.65 70.36 68.30 67.73 68.94 70.60 70.91 70.91 73.31 75.62 76.56 76.47 76.72 78.09 78.94 78.96 79.61 78.79 75.00 75.16 76.47 78.88 78.68 81.12 80.13 79.89 79.78 79.53 79.23 79.89 79.99 80.76 81.79 82.22 83.47 85.30 85.86 85.52 85.55 85.18 85.21 83.70 80.33 79.79 81.03 79.13 76.16 75.45 73.30 69.97 72.46 74.39 73.98 73.33 71.01 70.08 70.53 71.58 71.93 72.72 73.80 75.78 76.85 76.67 76.50 76.91 77.14 78.13 78.28 77.72 80.13 79.82 78.46 77.97 77.91 77.48 76.03 76.05 75.34 73.87 75.14 76.42 76.57 78.83 79.71 78.59 84.94 89.24 92.96 92.27 91.61 91.15 91.24 90.95 89.07 87.66 86.60 86.09 85.73 85.23 85.51 87.54 89.45 91.78 92.57 92.79 94.06 95.56 96.56 96.77 96.61 96.07 95.72 94.60 92.17 91.14 90.86 91.06 90.12 91.18 93.23 92.87 90.13 89.01 91.39 92.92 92.79 92.15 89.66 78.92 79.97 83.76 86.73 83.38 80.28 76.17 76.47 77.89 80.66 80.16 78.39 76.56 76.98 81.05 83.01 79.24 70.72
99.56 106.49 111.97 116.73 122.18 132.99 141.96 151.27 161.95 173.63 182.56 193.79 205.78 222.03 240.17 254.47 272.88 287.74 306.08 322.03 336.89 354.05 368.52 377.95 388.77 398.66 402.53 407.01 404.92 401.13 398.92 396.54 391.79 387.56 380.38 369.94 317.12 290.38 291.39 292.14 292.63 292.90 292.97 292.87 292.49 291.83 290.85 289.50 287.44 285.37 283.47 281.26 278.99 276.62 274.22 271.60 268.67 265.75 262.82 259.74 256.57 253.41 250.26 247.08 242.83 237.67 232.36 227.45 222.31 217.86 214.56 211.25 207.93 204.57 201.25 197.97 194.74 191.53 188.31 185.21 182.17 179.10 176.04 173.03 170.13 167.32 164.52 160.81 156.61 153.75 151.01 148.35 145.74 143.20 140.76 138.39 135.94 133.59 131.39 129.16 126.89 124.62 122.42 120.49 118.32 115.28 112.24 109.42 106.54 103.67 101.81 100.04 98.32 96.61 94.98 93.41 91.76 90.10 88.61 87.15 85.69 84.23 82.78 81.38 80.06 78.72 77.38 76.04 74.54 72.71 71.38 70.24 69.10 67.95 66.85 65.84 64.77 63.63 62.65 61.76 60.86 59.93 58.88 58.05 57.34 56.29 55.00 53.69 52.56 51.57 50.83 50.27 49.70 49.13 48.58 48.09 47.69 47.35 46.99 46.66 46.40 46.17 45.84 45.52 45.31 45.20 45.21 45.21 45.21 45.23 45.22 45.28 45.42 45.53 45.64 45.96 46.24 46.29 46.37 46.58 46.90 47.27 47.52 47.75 48.08 48.50 48.98 49.48 49.94 50.42 51.00 51.44 51.83 52.24 52.68 53.15 53.62 54.08 54.56 55.13 55.71 56.28 56.92 57.61 58.30 58.96 59.51 60.22 61.15 62.01 62.84 63.46 64.10 64.76 65.42 66.17 67.06 67.83 68.52 69.31 70.11 70.91 71.40 71.68 71.88 72.10 72.26 72.05 71.16 70.66 70.59 70.58 70.10 69.59 69.67 70.45 71.84 73.45 74.92 75.43 75.65 76.07 76.44 76.69 77.01 77.36 77.58 77.81 78.00 78.31 78.75 79.10 79.38 79.62 79.70 79.73 79.76 79.89 80.04 80.15 80.21 80.38 80.55 80.68 80.79 80.92 80.94 80.77 80.68 80.47 79.72 79.19 78.88 78.54 78.14 77.67 77.27 76.85 76.39 75.96 75.60 75.20 74.80 74.31 73.79 73.25 72.80 72.48 72.53 72.55 73.09 75.68 76.49 75.04 74.11 74.39 76.40 77.52 76.57 77.66 76.54 76.99 77.01 76.78 78.36 79.53 79.60 78.67 78.80 78.18 77.76 77.94 77.84 78.91 79.27 78.99 78.77 81.32 82.68 84.00 83.42 81.11 79.57 79.00 78.41 77.99 76.67 74.79 73.82 72.37 73.25 73.80 70.58 69.55 68.97 69.05 69.27 69.85 70.73 71.15 70.90 72.09 71.05 70.60 71.16 67.36 67.63 68.49 68.96 70.08 71.33 73.90 75.48 75.50 74.74 75.05 75.35 76.41 76.43 75.23 76.31 72.62 72.56 73.85 76.83 75.43 79.83 80.03 80.23 79.68 79.64 79.28 78.96 79.27 79.57 80.28 80.78 81.82 82.84 83.59 83.89 83.43 84.00 83.49 82.39 77.63 77.18 79.84 78.53 77.63 74.77 72.25 70.16 71.01 71.32 70.50 70.59 68.39 67.06 67.31 67.48 69.29 70.85 72.81 73.75 74.30 75.11 75.59 75.99 75.65 75.54 75.97 76.20 76.76 75.94 75.18 74.61 73.95 73.58 72.66 74.39 72.84 72.11 73.14 74.53 74.52 74.55 75.26 75.07 75.78 83.29 87.08 88.78 87.76 86.57 88.47 88.54 87.86 86.85 86.06 86.48 85.94 85.22 85.37 86.20 86.96 87.95 89.76 90.47 91.79 93.32 93.86 93.67 92.69 91.04 89.74 88.14 87.77 87.38 88.58 88.40 87.18 86.91 90.46 89.09 84.11 74.05 78.83 82.26 85.71 87.20 87.67 88.87 89.28 90.39 90.47 88.53 85.82 82.28 79.55 75.62 74.37 74.26 76.27 80.34 79.39 78.78 76.26 71.53 67.60
98.10 105.64 111.80 116.65 121.87 131.76 138.88 147.82 158.87 169.94 181.67 193.69 205.29 220.40 237.07 249.77 264.76 279.21 295.54 310.42 323.08 340.47 353.22 363.13 374.20 383.95 391.42 396.27 394.20 390.90 388.71 386.70 382.04 376.94 368.81 359.17 340.76 284.16 285.16 285.89 286.38 286.60 286.66 286.58 286.26 285.65 284.67 283.34 281.32 279.53 277.72 275.53 273.33 271.07 268.75 266.21 263.38 260.56 257.71 254.71 251.64 248.58 245.52 242.41 238.28 233.27 228.07 223.25 218.23 213.88 210.64 207.44 204.19 200.88 197.66 194.46 191.27 188.12 185.03 181.96 178.91 175.92 172.96 170.06 167.22 164.40 161.57 157.86 153.71 150.96 148.33 145.80 143.31 140.85 138.40 135.96 133.57 131.32 129.25 127.08 124.80 122.55 120.39 118.56 116.48 113.48 110.48 107.73 104.87 102.08 100.30 98.66 97.07 95.36 93.70 92.14 90.57 88.99 87.50 86.07 84.65 83.25 81.82 80.49 79.19 77.96 76.72 75.46 74.02 72.25 70.95 69.81 68.67 67.52 66.44 65.47 64.44 63.34 62.37 61.49 60.66 59.76 58.75 57.92 57.21 56.17 54.90 53.62 52.51 51.53 50.83 50.27 49.70 49.11 48.56 48.09 47.68 47.35 46.98 46.60 46.38 46.17 45.78 45.44 45.24 45.17 45.18 45.13 45.06 45.07 45.14 45.22 45.27 45.35 45.45 45.71 45.95 45.97 46.08 46.35 46.64 46.92 47.15 47.42 47.74 48.13 48.56 49.01 49.46 49.97 50.59 51.02 51.35 51.71 52.19 52.64 53.10 53.57 54.09 54.66 55.23 55.81 56.44 57.12 57.81 58.48 59.06 59.77 60.67 61.56 62.43 63.05 63.73 64.44 65.13 65.93 66.84 67.60 68.32 69.10 69.95 70.79 71.23 71.27 71.46 71.63 71.78 71.52 70.61 70.10 70.10 70.11 69.73 69.38 69.73 70.53 71.87 73.40 74.81 75.24 75.26 75.74 76.23 76.46 76.74 77.08 77.28 77.41 77.62 77.94 78.40 78.70 78.95 79.17 79.22 79.21 79.21 79.24 79.24 79.31 79.43 79.56 79.69 79.82 79.90 79.93 79.94 79.93 79.87 79.70 79.04 78.52 78.19 77.86 77.45 77.00 76.63 76.27 75.83 75.36 74.91 74.61 74.33 73.85 73.28 72.79 72.39 72.04 71.71 71.60 71.88 73.73 74.55 74.17 74.05 74.53 74.75 76.35 77.16 77.37 77.65 77.66 77.48 77.54 77.29 79.18 78.03 79.13 81.88 82.68 83.06 83.86 83.41 84.85 83.96 82.73 80.16 81.67 83.26 83.24 82.53 80.89 78.61 76.39 75.89 75.96 75.11 71.95 70.38 69.61 69.82 73.92 72.07 68.97 67.18 66.83 67.02 67.72 67.76 67.35 67.38 67.71 69.00 68.28 70.81 68.94 67.51 67.98 68.77 69.56 72.74 73.70 72.90 72.21 72.00 71.34 70.90 71.65 72.34 71.37 73.66 72.34 71.42 73.61 75.23 72.95 77.03 78.50 79.63 78.80 79.12 78.72 78.54 79.00 78.72 79.33 79.38 80.98 80.66 81.80 80.79 81.60 82.19 80.88 79.24 75.24 76.05 76.52 77.39 76.67 73.10 71.42 70.39 69.24 68.40 67.52 67.90 66.84 65.59 64.91 65.00 67.90 70.32 71.55 71.06 72.15 73.17 74.18 74.53 73.82 73.45 73.16 72.60 72.24 72.13 71.97 71.29 69.43 68.87 67.92 70.83 70.60 69.72 70.14 71.16 71.51 71.15 72.72 72.83 73.08 76.23 79.66 80.21 77.67 77.04 79.38 86.14 86.19 85.01 84.00 86.94 86.02 84.94 85.41 86.81 87.56 87.86 87.87 87.82 89.60 91.78 90.91 88.65 87.26 86.10 86.90 85.21 84.18 85.81 86.72 85.01 80.63 77.36 81.25 85.34 81.92 75.37 62.37 57.16 64.56 77.16 81.43 72.22 79.05 83.64 76.61 68.26 74.22 71.93 67.83 67.90 67.14 73.77 72.99 75.68 77.80 75.06 74.58 75.31 74.24
97.64 105.60 111.87 116.41 121.78 131.85 137.51 145.33 155.36 165.75 178.61 193.31 204.86 219.24 233.08 244.88 258.41 273.17 288.71 302.16 313.04 329.95 342.65 353.08 362.19 369.95 377.14 381.15 380.82 378.06 376.24 374.37 370.84 365.16 356.74 349.81 341.16 284.12 279.01 279.71 280.17 280.41 280.46 280.37 280.06 279.51 278.64 277.36 275.37 273.65 271.95 269.92 267.75 265.52 263.26 260.81 258.10 255.38 252.64 249.73 246.75 243.79 240.83 237.83 233.83 228.91 223.85 219.13 214.21 209.94 206.76 203.64 200.45 197.21 194.07 190.94 187.84 184.73 181.70 178.66 175.68 172.75 169.85 167.02 164.22 161.42 158.63 154.94 150.93 148.27 145.69 143.24 140.80 138.44 136.00 133.55 131.27 129.07 127.05 124.93 122.67 120.50 118.42 116.63 114.59 111.67 108.71 106.02 103.25 100.52 98.81 97.31 95.79 94.09 92.45 90.88 89.36 87.90 86.42 84.98 83.62 82.26 80.89 79.60 78.36 77.21 76.06 74.90 73.51 71.81 70.52 69.39 68.24 67.09 66.03 65.11 64.13 63.09 62.13 61.25 60.44 59.60 58.66 57.82 57.03 56.00 54.80 53.58 52.51 51.54 50.83 50.26 49.69 49.11 48.56 48.09 47.68 47.34 46.94 46.51 46.33 46.17 45.72 45.36 45.23 45.20 45.19 45.05 44.88 44.91 45.10 45.24 45.25 45.26 45.32 45.47 45.61 45.68 45.87 46.21 46.43 46.60 46.81 47.08 47.42 47.78 48.17 48.60 49.06 49.56 50.20 50.61 50.88 51.21 51.69 52.15 52.61 53.11 53.69 54.26 54.83 55.41 56.02 56.63 57.32 58.00 58.63 59.31 60.10 61.06 62.03 62.63 63.39 64.13 64.82 65.61 66.48 67.25 68.01 68.90 69.74 70.51 70.87 70.86 70.95 71.04 71.15 70.91 70.15 69.64 69.56 69.56 69.31 69.16 69.66 70.54 71.84 73.18 74.40 74.78 74.90 75.39 75.88 76.14 76.41 76.72 76.91 77.05 77.32 77.64 77.99 78.24 78.44 78.63 78.67 78.64 78.61 78.55 78.44 78.45 78.56 78.68 78.79 78.89 78.95 78.99 79.02 79.03 78.99 78.83 78.24 77.78 77.47 77.13 76.74 76.33 75.99 75.65 75.28 74.85 74.37 74.06 73.81 73.37 72.85 72.37 71.97 71.64 71.31 70.99 70.55 71.53 72.18 72.54 73.03 74.55 76.14 75.14 76.10 76.89 76.75 76.66 76.08 78.00 77.66 76.80 77.24 77.22 80.18 82.74 82.96 83.98 84.23 84.44 83.04 82.10 81.04 80.73 82.77 82.01 80.21 79.17 77.56 75.10 73.84 73.00 73.28 71.33 68.05 66.98 67.79 70.76 71.48 68.07 64.55 63.51 64.13 65.52 64.75 65.48 65.88 67.14 68.98 67.97 68.57 68.47 69.86 68.73 70.01 70.20 71.68 70.98 69.88 68.62 68.89 68.73 68.64 69.40 69.93 69.87 72.24 75.08 73.33 74.01 73.88 72.70 75.56 77.39 78.77 77.66 77.90 78.17 78.04 78.76 78.36 79.02 78.49 79.69 79.35 79.26 77.66 78.95 80.18 79.58 76.99 73.91 74.88 73.60 72.71 72.55 74.92 70.75 69.46 66.97 65.38 65.00 64.87 64.08 62.49 63.22 64.34 68.29 68.65 68.89 68.38 69.87 70.79 72.30 72.18 70.55 70.72 69.54 67.90 67.24 67.56 67.07 66.87 66.37 66.24 66.04 67.91 68.26 68.08 67.77 66.89 66.18 65.60 65.13 65.43 67.63 69.30 73.90 76.23 76.26 75.96 76.35 76.98 77.49 80.83 78.47 78.84 82.44 83.49 84.65 87.13 87.27 87.07 87.01 86.90 87.43 88.73 86.03 79.68 80.63 82.32 84.17 83.32 80.70 77.19 77.40 78.25 79.49 76.80 75.47 80.92 80.88 75.99 70.81 62.81 54.54 58.34 60.39 59.14 61.83 66.19 73.45 67.29 69.36 67.49 66.51 66.51 66.11 68.29 70.75 76.06 75.59 74.64 71.12 70.82 75.44
98.43 106.38 111.98 115.96 121.93 131.64 137.13 144.21 152.80 163.35 176.09 191.64 204.35 217.89 229.20 241.69 255.36 268.61 282.83 293.73 303.97 319.80 333.34 343.07 349.89 355.09 361.44 364.14 364.36 363.31 362.61 361.67 359.60 354.75 346.57 339.86 331.14 302.79 272.96 273.58 274.03 274.33 274.39 274.22 273.92 273.45 272.74 271.57 269.55 267.80 266.21 264.41 262.28 260.00 257.76 255.39 252.85 250.25 247.59 244.80 241.88 239.02 236.20 233.32 229.41 224.62 219.65 215.10 210.24 206.05 202.89 199.83 196.72 193.59 190.50 187.42 184.43 181.38 178.33 175.38 172.48 169.58 166.74 163.90 161.15 158.43 155.70 152.11 148.28 145.66 143.10 140.68 138.29 135.93 133.54 131.19 128.95 126.81 124.79 122.72 120.54 118.47 116.44 114.67 112.61 109.83 106.97 104.31 101.59 99.01 97.36 95.90 94.40 92.81 91.21 89.67 88.21 86.80 85.35 83.95 82.64 81.32 80.01 78.75 77.58 76.45 75.32 74.20 72.87 71.22 69.97 68.90 67.81 66.73 65.73 64.87 63.90 62.87 61.97 61.14 60.29 59.44 58.60 57.76 56.92 55.91 54.80 53.65 52.59 51.53 50.81 50.24 49.67 49.10 48.55 48.08 47.68 47.35 46.92 46.48 46.25 46.06 45.65 45.33 45.22 45.21 45.21 45.01 44.79 44.79 44.98 45.12 45.14 45.13 45.14 45.26 45.39 45.47 45.66 46.01 46.24 46.38 46.56 46.78 47.10 47.44 47.80 48.21 48.66 49.16 49.76 50.14 50.38 50.72 51.19 51.66 52.14 52.66 53.24 53.81 54.39 54.97 55.53 56.13 56.81 57.51 58.20 58.89 59.58 60.62 61.63 62.23 63.00 63.77 64.47 65.21 66.03 66.83 67.64 68.56 69.37 70.04 70.31 70.30 70.31 70.31 70.39 70.24 69.63 69.12 68.94 68.94 68.84 68.92 69.60 70.55 71.72 72.86 73.81 74.27 74.55 75.01 75.45 75.77 76.06 76.30 76.51 76.74 77.08 77.37 77.59 77.75 77.89 78.03 78.07 78.04 77.97 77.83 77.64 77.58 77.64 77.75 77.86 77.89 77.94 78.06 78.12 78.12 78.06 77.89 77.38 77.00 76.72 76.37 76.01 75.65 75.32 75.00 74.75 74.38 73.90 73.53 73.23 72.89 72.45 71.97 71.56 71.21 70.88 70.55 70.12 70.09 70.14 70.68 71.29 72.81 74.18 73.70 75.06 79.26 79.02 77.74 76.27 78.67 78.98 76.19 76.38 75.92 78.14 81.39 81.62 81.54 82.53 81.65 80.57 80.37 79.98 79.78 80.01 80.54 79.06 77.44 76.19 74.39 72.60 69.63 69.28 70.92 68.31 67.24 68.00 67.93 68.75 68.22 63.07 61.50 62.86 64.25 63.82 64.75 65.55 66.23 66.74 66.72 65.99 66.27 68.78 69.40 70.61 70.52 69.59 67.46 66.39 66.74 67.55 68.69 69.43 69.07 69.08 70.13 70.74 73.30 73.60 73.19 72.81 73.28 74.78 76.36 77.81 77.58 76.61 76.99 77.19 77.95 77.54 78.28 78.20 78.70 77.68 77.33 76.70 76.65 77.62 77.61 74.72 70.95 69.86 71.06 69.05 70.07 72.52 69.61 66.91 64.61 62.42 62.08 61.89 60.75 60.28 61.98 65.50 66.45 66.25 67.83 68.07 68.62 69.91 70.26 68.97 68.92 67.71 66.34 65.85 65.41 63.52 62.58 62.72 63.60 63.89 61.70 62.39 64.21 64.60 63.82 63.57 62.50 60.45 60.01 61.61 62.96 65.15 71.59 74.69 74.86 75.10 75.68 75.60 76.16 77.07 77.23 77.68 78.81 79.32 79.25 83.92 85.05 85.78 85.73 84.83 84.92 85.31 83.00 77.84 79.07 82.02 81.87 81.09 79.22 76.72 75.64 76.03 76.62 76.65 76.88 76.86 76.83 77.84 75.45 66.38 66.75 54.71 55.83 58.75 61.96 63.04 69.76 69.76 71.65 72.10 71.76 72.94 71.16 70.16 68.52 72.45 75.29 76.63 72.54 70.51 74.43
100.44 106.78 111.93 115.59 122.07 131.79 137.28 144.31 151.51 162.76 174.26 189.76 202.58 215.19 226.85 240.26 253.87 264.99 277.87 287.71 299.32 311.34 323.08 331.84 337.39 343.21 347.72 348.77 349.00 348.91 348.95 349.15 348.83 344.89 336.78 329.40 318.73 306.11 280.67 267.68 268.11 268.42 268.47 268.30 268.00 267.55 266.89 265.76 263.84 262.15 260.65 258.95 256.86 254.66 252.48 250.18 247.77 245.25 242.63 239.96 237.14 234.36 231.62 228.84 225.00 220.36 215.51 211.09 206.33 202.23 199.11 196.09 193.05 190.02 186.96 183.94 181.03 178.04 175.00 172.11 169.27 166.48 163.65 160.83 158.12 155.50 152.80 149.29 145.66 143.06 140.53 138.14 135.77 133.41 131.11 128.85 126.65 124.55 122.52 120.49 118.42 116.44 114.50 112.67 110.61 107.97 105.21 102.61 100.01 97.55 95.94 94.46 92.99 91.49 89.97 88.49 87.08 85.70 84.31 82.96 81.70 80.43 79.15 77.96 76.82 75.68 74.55 73.40 72.09 70.51 69.33 68.35 67.39 66.42 65.52 64.70 63.75 62.70 61.89 61.14 60.16 59.27 58.56 57.74 56.84 55.88 54.90 53.82 52.75 51.53 50.80 50.24 49.67 49.09 48.54 48.07 47.68 47.35 46.92 46.48 46.12 45.89 45.57 45.33 45.23 45.21 45.22 45.02 44.79 44.71 44.76 44.89 44.97 44.97 44.97 45.11 45.27 45.32 45.46 45.77 46.07 46.27 46.40 46.51 46.78 47.11 47.46 47.86 48.24 48.75 49.25 49.59 49.84 50.22 50.69 51.20 51.72 52.17 52.71 53.27 53.85 54.43 54.99 55.57 56.30 57.03 57.73 58.40 59.07 60.17 61.25 61.83 62.57 63.33 64.03 64.74 65.51 66.32 67.16 68.01 68.72 69.26 69.52 69.59 69.54 69.44 69.49 69.38 68.92 68.51 68.31 68.31 68.31 68.60 69.51 70.58 71.59 72.48 73.21 73.72 74.14 74.61 75.07 75.48 75.74 75.88 76.08 76.35 76.73 77.02 77.18 77.31 77.42 77.51 77.54 77.50 77.38 77.14 76.83 76.71 76.77 76.86 76.95 76.96 77.00 77.11 77.16 77.16 77.12 76.99 76.53 76.20 75.96 75.65 75.32 74.95 74.60 74.30 74.08 73.78 73.32 72.95 72.65 72.32 71.96 71.53 71.15 70.85 70.50 70.15 69.83 69.42 69.11 69.45 69.55 70.59 71.54 71.78 73.67 77.84 80.28 79.15 78.61 79.22 80.34 78.22 75.84 75.66 76.27 78.60 80.34 78.70 80.11 79.62 78.56 78.48 79.11 78.96 79.12 79.72 77.45 76.22 74.85 73.17 71.49 68.60 67.18 68.91 68.35 67.03 65.32 65.02 66.11 69.42 64.94 62.03 63.31 63.32 64.16 63.78 64.19 64.43 64.86 64.38 64.76 65.76 68.66 70.36 69.41 67.99 66.11 65.43 67.01 68.29 68.84 68.90 68.69 68.08 68.07 70.34 70.26 71.62 73.22 72.64 72.17 72.81 73.80 75.26 75.95 76.53 76.67 76.77 76.34 76.92 76.76 76.51 77.00 77.70 76.82 75.51 74.85 75.34 75.98 75.91 72.56 68.76 70.72 70.28 66.55 68.09 68.42 65.87 62.16 62.18 60.56 59.52 58.66 58.65 57.56 61.63 64.58 64.59 65.97 66.76 67.85 68.79 67.32 68.16 66.45 64.56 63.02 62.60 62.27 61.28 61.04 60.23 60.45 60.80 58.89 57.52 57.90 59.63 60.13 59.78 59.98 58.67 56.81 54.03 53.82 56.51 65.28 69.11 72.46 72.16 71.70 71.84 70.84 70.96 71.19 74.89 75.85 76.55 77.75 78.76 81.09 82.20 83.09 83.97 83.28 82.76 82.80 80.69 77.44 76.49 81.00 80.56 78.22 76.39 76.46 75.59 75.21 74.09 74.92 77.06 77.95 74.35 76.11 78.00 76.48 75.35 66.98 63.65 64.93 65.95 66.53 69.72 71.03 73.49 74.13 76.54 77.89 76.81 75.88 74.04 74.21 78.27 79.30 76.53 75.13 76.25
101.93 107.38 111.69 115.55 122.21 131.86 137.34 144.36 151.73 162.86 173.58 186.10 197.96 209.29 223.22 237.57 251.03 260.98 272.30 282.84 294.10 305.86 316.51 324.06 329.11 334.68 336.99 336.85 336.99 337.24 337.73 338.04 337.18 333.65 327.29 319.94 310.20 298.88 286.81 266.26 262.35 262.60 262.63 262.53 262.24 261.78 261.05 259.93 258.27 256.65 255.19 253.51 251.52 249.47 247.38 245.17 242.86 240.39 237.79 235.22 232.51 229.80 227.07 224.32 220.65 216.05 211.38 207.06 202.52 198.47 195.43 192.44 189.45 186.47 183.46 180.51 177.62 174.71 171.75 168.91 166.15 163.39 160.63 157.91 155.23 152.63 150.04 146.60 142.94 140.44 137.99 135.61 133.28 130.97 128.73 126.54 124.41 122.34 120.33 118.33 116.35 114.44 112.58 110.78 108.74 106.14 103.48 100.94 98.49 96.12 94.56 93.08 91.62 90.19 88.74 87.30 85.93 84.61 83.31 82.01 80.76 79.53 78.35 77.20 76.07 74.95 73.83 72.73 71.46 69.92 68.80 67.87 66.97 66.07 65.24 64.45 63.55 62.56 61.79 61.04 60.05 59.14 58.46 57.68 56.79 55.88 54.95 53.92 52.80 51.57 50.82 50.26 49.69 49.11 48.56 48.07 47.66 47.34 46.92 46.46 46.11 45.82 45.54 45.34 45.23 45.21 45.17 44.99 44.77 44.63 44.61 44.69 44.80 44.82 44.83 45.00 45.17 45.19 45.31 45.55 45.85 46.14 46.21 46.28 46.50 46.78 47.13 47.50 47.86 48.35 48.75 49.02 49.33 49.74 50.20 50.74 51.29 51.68 52.11 52.68 53.27 53.83 54.39 55.00 55.76 56.55 57.23 57.90 58.60 59.74 60.85 61.42 62.12 62.83 63.53 64.22 64.94 65.74 66.54 67.24 67.81 68.22 68.52 68.71 68.62 68.43 68.43 68.37 68.07 67.78 67.64 67.64 67.69 68.14 69.41 70.58 71.38 72.02 72.59 73.11 73.65 74.19 74.72 75.23 75.44 75.45 75.63 75.91 76.30 76.60 76.77 76.91 76.99 77.02 77.05 77.00 76.84 76.48 76.02 75.86 75.94 76.00 76.06 76.06 76.08 76.15 76.17 76.17 76.18 76.09 75.69 75.37 75.16 75.00 74.65 74.23 73.85 73.55 73.34 73.06 72.65 72.31 72.05 71.73 71.40 71.06 70.77 70.57 70.23 69.82 69.56 69.23 68.95 68.70 68.48 68.99 69.20 69.55 71.34 75.39 78.29 78.75 79.81 81.32 80.86 79.76 77.71 77.27 78.30 80.55 79.80 77.77 77.95 78.47 77.60 77.36 78.30 79.03 78.94 78.57 76.70 75.03 73.19 71.41 69.66 66.89 65.01 65.11 64.75 63.45 61.98 61.85 64.13 68.43 68.00 65.20 62.92 61.69 61.97 62.50 63.80 64.37 64.72 65.05 65.79 66.94 67.94 66.81 65.49 64.92 65.01 66.85 67.82 66.41 65.63 65.66 65.72 67.04 68.28 69.45 70.17 70.79 70.84 71.01 71.78 72.03 73.22 74.26 74.67 75.63 76.07 76.15 75.97 75.29 75.66 75.89 75.26 76.28 75.17 74.54 75.32 74.53 73.54 71.41 69.73 68.23 69.86 68.78 67.03 67.42 65.65 61.26 59.44 58.39 58.17 57.42 57.18 56.52 58.21 62.34 62.73 63.40 64.59 65.89 67.83 66.13 66.53 65.80 64.08 62.07 61.37 60.27 58.54 58.65 59.06 58.34 57.49 57.47 55.95 55.22 55.48 56.68 56.45 56.84 56.74 56.23 55.08 50.72 49.72 58.02 65.03 68.21 70.29 70.20 69.31 68.92 67.58 67.57 68.16 71.48 74.11 75.40 77.54 78.68 79.44 80.06 81.13 81.70 81.36 81.26 81.11 78.85 76.17 75.38 78.12 78.90 76.63 74.78 74.66 74.92 74.15 72.14 73.03 75.99 77.51 74.30 73.11 75.77 79.57 77.70 75.88 72.33 70.47 69.92 69.59 70.98 72.04 74.29 74.25 75.73 77.40 79.19 79.62 79.23 79.39 79.53 81.36 80.43 80.75 81.16
102.66 108.21 111.97 116.14 122.36 131.86 137.34 143.26 151.82 162.98 173.53 184.52 194.94 205.43 219.22 233.31 246.00 255.76 265.94 277.18 289.15 301.36 309.59 315.02 320.01 324.73 326.67 327.42 327.67 328.07 328.76 329.11 327.64 324.02 318.77 312.16 304.31 293.71 281.40 267.74 256.80 256.89 256.95 256.86 256.59 256.11 255.33 254.25 252.74 251.26 249.81 248.12 246.26 244.30 242.34 240.24 238.00 235.55 232.99 230.49 227.96 225.28 222.58 219.80 216.21 211.83 207.28 203.04 198.68 194.78 191.77 188.83 185.90 182.96 179.99 177.08 174.24 171.40 168.55 165.78 163.05 160.31 157.64 155.10 152.50 149.81 147.28 143.94 140.14 137.80 135.48 133.09 130.80 128.61 126.43 124.28 122.19 120.17 118.21 116.26 114.32 112.45 110.64 108.98 107.00 104.37 101.73 99.30 97.01 94.75 93.23 91.73 90.28 88.89 87.50 86.10 84.79 83.51 82.33 81.09 79.82 78.63 77.57 76.44 75.31 74.23 73.17 72.20 70.95 69.44 68.37 67.44 66.55 65.72 64.89 64.11 63.30 62.45 61.69 60.82 59.91 59.03 58.31 57.58 56.78 55.89 54.96 53.93 52.84 51.61 50.89 50.33 49.76 49.19 48.63 48.10 47.65 47.33 46.91 46.47 46.13 45.91 45.57 45.33 45.23 45.13 45.07 44.88 44.71 44.62 44.57 44.61 44.69 44.72 44.71 44.87 45.02 45.09 45.25 45.38 45.61 45.89 45.98 46.08 46.30 46.55 46.82 47.17 47.55 47.96 48.29 48.54 48.89 49.29 49.76 50.27 50.78 51.16 51.57 52.14 52.73 53.31 53.87 54.47 55.23 56.02 56.73 57.40 58.08 59.20 60.34 60.93 61.63 62.33 63.00 63.65 64.33 65.09 65.82 66.41 66.86 67.19 67.47 67.65 67.56 67.38 67.38 67.33 67.15 67.00 66.89 66.89 66.92 67.40 68.84 70.24 71.00 71.51 71.89 72.39 73.03 73.60 74.22 74.86 75.20 75.25 75.38 75.60 75.92 76.17 76.34 76.47 76.51 76.52 76.54 76.51 76.34 75.95 75.33 75.06 75.06 75.08 75.10 75.10 75.11 75.13 75.14 75.15 75.18 75.14 74.80 74.50 74.35 74.23 73.91 73.45 73.11 72.81 72.60 72.32 71.97 71.69 71.46 71.16 70.83 70.57 70.39 70.28 69.93 69.49 69.28 69.02 68.78 68.56 68.37 68.24 67.96 68.08 68.89 71.89 74.40 75.73 77.81 80.52 80.14 79.95 81.14 80.08 80.41 80.20 79.48 79.29 76.85 78.30 77.87 76.77 76.01 79.22 78.29 78.84 76.53 72.75 69.82 67.98 66.47 64.18 62.31 61.10 60.32 59.22 58.14 58.17 60.61 64.20 65.31 63.99 63.16 62.14 61.86 61.20 62.00 64.05 65.82 66.71 66.79 65.80 64.11 62.04 62.13 64.33 65.81 65.50 64.96 63.31 62.48 62.64 63.93 66.02 67.79 68.74 69.32 70.10 69.40 69.29 70.74 71.34 72.09 73.69 73.61 73.83 75.35 75.29 75.47 74.50 73.91 74.74 74.34 74.14 73.47 73.37 73.67 72.69 71.10 68.40 67.66 67.70 67.94 66.26 67.70 64.73 62.89 58.19 56.80 56.35 56.24 56.32 56.79 57.27 60.38 60.85 61.65 62.37 64.47 65.21 64.78 63.96 63.92 63.44 62.10 60.58 59.78 58.29 56.74 57.28 57.20 56.09 55.80 55.43 54.65 54.02 53.89 54.02 54.70 54.81 53.94 54.85 54.53 53.02 52.73 59.72 63.91 65.91 67.44 67.98 67.61 67.19 66.76 66.61 67.59 68.87 71.80 74.14 75.73 77.03 78.12 78.75 78.93 78.98 79.48 79.88 79.68 78.14 76.48 75.86 75.82 76.51 75.99 74.01 73.80 73.08 72.50 70.83 71.30 74.22 76.86 74.40 70.71 71.10 76.24 78.33 77.54 75.90 74.63 73.32 72.97 73.47 74.26 74.93 75.69 76.70 77.63 78.79 79.81 80.05 80.42 81.18 82.97 83.92 83.58 83.56
105.32 110.83 114.18 117.77 123.11 131.94 137.39 143.11 151.93 163.22 173.60 184.30 193.07 203.22 215.37 228.21 241.06 250.88 260.70 271.68 283.28 295.01 303.39 307.75 311.54 316.16 318.43 317.95 318.22 318.95 320.31 320.40 318.64 315.01 310.77 305.71 299.72 289.42 276.53 265.86 253.01 251.31 251.37 251.30 251.04 250.55 249.77 248.75 247.30 245.91 244.46 242.80 241.06 239.19 237.28 235.25 233.08 230.69 228.21 225.81 223.36 220.77 218.14 215.40 211.86 207.68 203.20 199.07 194.88 191.12 188.16 185.26 182.37 179.48 176.59 173.73 170.94 168.15 165.38 162.67 159.99 157.29 154.68 152.23 149.68 146.99 144.53 141.26 137.48 135.21 132.97 130.63 128.40 126.29 124.16 122.06 120.01 118.05 116.17 114.26 112.34 110.50 108.74 107.14 105.21 102.61 100.04 97.70 95.50 93.33 91.85 90.40 88.99 87.64 86.29 84.94 83.66 82.47 81.31 80.15 78.91 77.78 76.77 75.68 74.56 73.51 72.53 71.62 70.40 68.97 67.94 67.03 66.15 65.36 64.56 63.76 63.03 62.31 61.48 60.59 59.74 58.96 58.17 57.45 56.71 55.87 54.94 53.90 52.85 51.69 50.96 50.40 49.83 49.26 48.69 48.12 47.65 47.33 46.91 46.47 46.26 46.07 45.64 45.33 45.22 45.08 44.90 44.74 44.63 44.60 44.60 44.60 44.64 44.64 44.64 44.66 44.78 45.07 45.26 45.28 45.38 45.55 45.74 45.94 46.18 46.36 46.52 46.88 47.33 47.60 47.87 48.15 48.49 48.90 49.37 49.79 50.19 50.61 51.09 51.65 52.24 52.83 53.40 53.99 54.68 55.44 56.22 56.91 57.52 58.57 59.69 60.35 61.11 61.84 62.46 63.06 63.69 64.37 64.98 65.48 65.84 66.15 66.36 66.43 66.37 66.29 66.30 66.28 66.20 66.16 66.08 66.07 65.97 66.40 67.93 69.55 70.48 70.94 71.09 71.58 72.28 72.88 73.57 74.40 75.03 75.25 75.35 75.43 75.61 75.74 75.84 75.94 75.97 75.98 76.00 76.01 75.88 75.53 74.77 74.31 74.18 74.06 74.05 74.05 74.07 74.07 74.07 74.08 74.12 74.10 73.85 73.59 73.45 73.31 73.02 72.65 72.35 72.13 71.91 71.64 71.35 71.13 70.95 70.64 70.31 70.07 69.95 69.89 69.58 69.16 68.96 68.76 68.59 68.43 68.27 68.08 67.85 67.62 67.45 68.49 70.19 71.46 73.84 76.07 76.37 77.43 79.51 80.70 81.08 78.48 78.50 79.38 79.21 78.37 78.32 75.73 74.31 75.41 74.70 74.19 72.11 68.59 65.43 63.99 62.96 61.52 59.89 57.90 56.92 55.92 55.15 54.76 56.68 59.30 60.97 60.92 60.68 60.76 63.88 65.37 64.92 65.01 64.17 62.53 61.72 61.37 60.61 63.29 63.20 64.70 63.69 61.77 62.47 61.56 60.36 61.10 63.19 65.18 66.79 67.62 68.74 68.95 68.61 68.38 68.73 70.58 71.32 71.98 71.33 72.51 74.33 74.41 74.68 74.43 73.24 73.50 72.77 72.91 72.76 72.28 72.83 70.83 67.65 66.68 66.47 66.73 65.95 65.51 66.15 63.45 60.73 56.35 54.95 55.33 54.29 55.01 56.53 57.75 59.60 60.56 60.65 63.42 63.05 64.17 61.29 60.75 61.42 61.31 60.42 58.99 58.04 56.60 55.99 56.33 55.69 54.99 54.82 54.58 53.87 52.77 51.56 50.90 52.68 53.19 53.13 54.16 55.53 56.49 57.64 61.33 62.21 63.32 65.74 65.84 65.69 66.16 65.83 66.05 67.56 67.99 69.28 72.78 74.34 75.13 76.58 77.49 77.21 77.15 77.82 78.29 78.39 77.37 76.37 75.36 74.71 74.87 75.08 73.87 72.12 70.56 70.35 70.41 71.39 73.00 75.92 72.81 68.42 67.52 70.39 75.77 76.37 76.24 75.87 75.71 75.41 75.24 75.94 77.21 78.03 78.92 78.92 79.05 80.48 81.35 82.17 82.85 83.86 84.88 85.01 85.07
106.94 111.70 116.08 120.11 125.36 131.97 137.07 142.99 151.94 162.56 171.36 181.56 189.60 199.79 210.60 222.89 236.01 245.88 255.49 265.48 275.37 286.74 294.84 299.36 302.87 307.82 309.34 308.76 309.01 310.24 312.51 312.81 310.31 307.23 303.85 299.81 295.20 284.63 271.38 261.41 250.73 244.88 245.93 245.86 245.58 245.10 244.37 243.41 241.98 240.59 239.17 237.56 235.88 234.12 232.25 230.24 228.11 225.85 223.53 221.17 218.76 216.26 213.73 211.10 207.65 203.54 199.14 195.12 191.10 187.48 184.60 181.74 178.87 176.04 173.25 170.49 167.74 164.99 162.26 159.60 156.97 154.32 151.73 149.27 146.77 144.19 141.74 138.51 134.97 132.71 130.46 128.24 126.07 124.01 121.92 119.87 117.88 115.97 114.21 112.34 110.41 108.61 106.89 105.28 103.37 100.84 98.39 96.14 93.97 91.84 90.43 89.09 87.75 86.44 85.12 83.83 82.59 81.43 80.31 79.17 78.02 76.96 75.94 74.88 73.79 72.80 71.86 70.96 69.79 68.45 67.52 66.64 65.79 65.03 64.28 63.47 62.76 62.09 61.24 60.40 59.66 58.94 58.12 57.36 56.66 55.84 54.92 53.87 52.87 51.80 51.03 50.42 49.86 49.28 48.73 48.18 47.73 47.34 46.91 46.51 46.34 46.15 45.70 45.37 45.24 45.05 44.81 44.66 44.57 44.57 44.57 44.56 44.52 44.51 44.52 44.50 44.62 44.95 45.14 45.13 45.20 45.34 45.52 45.74 45.98 46.16 46.28 46.61 47.02 47.24 47.48 47.73 48.08 48.49 48.97 49.33 49.68 50.11 50.60 51.18 51.74 52.31 52.87 53.47 54.12 54.86 55.66 56.36 56.94 57.95 59.07 59.78 60.57 61.28 61.87 62.44 63.04 63.60 64.13 64.54 64.82 65.06 65.17 65.19 65.17 65.19 65.18 65.20 65.18 65.22 65.20 65.24 65.17 65.60 67.15 68.78 69.93 70.36 70.35 70.87 71.54 72.11 72.80 73.87 74.59 75.10 75.22 75.22 75.26 75.27 75.33 75.34 75.34 75.34 75.35 75.38 75.38 75.06 74.23 73.56 73.16 73.00 72.95 72.96 72.98 72.99 72.99 73.00 73.03 73.01 72.83 72.66 72.50 72.30 72.05 71.80 71.63 71.46 71.24 71.00 70.75 70.61 70.45 70.15 69.81 69.56 69.45 69.44 69.20 68.83 68.63 68.46 68.36 68.32 68.14 67.81 67.68 67.61 67.40 67.24 67.24 67.50 69.71 71.12 71.61 73.15 75.31 76.71 76.81 75.23 75.26 76.36 76.29 75.27 74.54 72.44 71.04 70.86 69.57 68.45 66.86 64.37 61.52 60.86 60.46 60.04 59.05 57.85 56.75 55.67 54.81 54.21 54.58 55.40 57.16 57.58 58.17 59.87 64.39 67.64 64.51 62.50 60.60 58.92 58.05 57.94 60.68 61.67 62.24 61.70 61.62 60.46 61.36 61.53 60.07 60.43 62.53 64.73 66.11 66.71 67.99 68.34 67.95 68.28 69.08 70.06 70.51 70.02 69.82 70.95 72.85 72.71 72.58 73.37 72.63 72.36 71.65 72.39 71.43 70.45 69.82 68.63 65.93 65.78 65.80 65.48 64.45 64.09 62.22 60.29 58.44 55.14 53.21 53.59 52.40 53.45 56.16 56.72 58.37 59.50 60.88 63.68 60.61 60.83 59.30 59.18 59.35 59.07 58.61 57.14 56.77 55.76 55.31 55.24 54.72 54.07 53.61 53.72 52.60 51.01 50.13 48.53 49.66 50.62 52.51 53.72 54.70 55.68 57.32 59.39 61.33 62.75 64.80 64.77 64.44 65.20 64.68 65.68 66.32 67.04 69.30 70.18 71.14 71.68 74.28 75.23 75.07 75.89 76.56 76.96 76.68 76.48 75.95 75.32 73.90 73.18 73.46 72.70 70.88 69.54 67.53 68.60 71.46 72.11 71.92 73.32 68.09 66.12 66.03 69.13 73.04 76.05 76.38 76.95 77.12 76.79 77.40 78.35 79.50 79.97 80.36 81.02 81.05 81.35 82.39 83.07 83.64 84.08 85.13 85.63
