2327.66 2161.97 2083.46 2272.27 2463.19 2590.39 2603.16 2626.22 2607.3 2562.36 2442.99 2289.4 2156.44 2058.91 1957.49 1842.66 1701.64 1560.04 1420.73 1267.87 1144.93 1089.88 1072.35 1048.79 1039.37 1051.43 1084.6 1140.25 1159.44 1182.23 1155.38 1243.14 1393.81 1239.79 1066.07 1092.19 1057.96 1023.19 1084.05 989.63 960.37 944.09 905.52 891.93 841.25 784.41 740.49 670.74 586.17 532.16 510.69 498.26 500.61 579.92 675.06 556.85 489.63 503.27 578.9 558.66 593.17 704.45 871.3 968.74 914.66 827.11 799.69 775.75 777.51 819.73 929.21 1047.55 1177.52 1334.18 1507.17 1475.48 1552.37 1446.6 1372.0 1486.11 1399.54 1340.14 1375.02 1473.98 1694.0 1843.29 1922.5 1920.57 2027.19 2098.05 2296.51 2397.92 2436.43 2345.54 2509.42 2581.11 2587.27 2608.9 2701.13 2645.2 2629.5 2616.58 2554.85 2308.86 2131.68 2221.18 2208.39 2251.69 2429.58 2539.52 2340.19 2209.17 2102.6 2097.09 1901.35 1777.61 1771.68 2020.95 1980.38 2198.71 2368.7 2257.11 2039.13 1822.89 1613.55 1673.64 1516.09 1322.83 1315.19 1325.42 1349.98 1372.58 1359.24 1366.41 1367.05 1457.98 1501.81 1563.44 1509.83 1439.31 1475.49
2260.86 2147.36 2166.78 2327.76 2480.45 2545.62 2531.84 2540.72 2518.94 2512.76 2427.98 2327.03 2218.43 2119.86 2029.85 1917.68 1815.28 1693.84 1518.31 1322.94 1233.85 1108.53 1060.08 1021.28 990.36 990.02 1036.85 1050.06 1074.69 1081.17 1149.5 1106.11 1295.86 1305.1 1038.53 1044.76 999.3 1003.71 978.98 955.53 915.25 877.79 909.34 845.04 772.15 719.51 691.62 619.17 548.27 478.54 444.95 437.24 446.02 508.01 581.14 532.07 489.11 502.53 524.43 536.75 594.26 682.99 823.24 790.83 776.07 736.42 681.97 654.15 659.0 755.2 932.37 994.06 1154.69 1245.34 1347.17 1252.02 1332.37 1316.54 1181.87 1288.23 1263.83 1203.27 1423.68 1601.8 1597.23 1707.34 1848.14 1850.0 1908.24 2178.73 2244.58 2269.51 2229.17 2322.55 2427.29 2401.97 2412.96 2546.51 2648.57 2503.72 2417.19 2514.46 2528.51 2481.58 2400.7 2299.27 2071.93 2054.58 2257.36 2468.75 2365.96 2160.5 1934.25 1825.25 1792.97 1617.6 1749.42 1800.91 1944.76 2139.23 2317.24 2194.72 2012.41 1758.4 1593.38 1431.75 1374.78 1248.18 1253.56 1226.3 1264.75 1279.87 1302.48 1334.57 1346.73 1420.85 1469.3 1553.34 1474.76 1439.45 1468.74
2121.51 2074.81 2135.19 2348.91 2434.81 2436.82 2423.23 2447.79 2461.76 2464.79 2370.15 2285.32 2204.15 2102.96 2007.53 1917.29 1797.45 1661.46 1517.36 1356.1 1247.81 1113.85 1037.34 1011.63 995.5 990.71 962.3 975.17 987.66 1018.91 996.74 1064.41 1158.79 1330.97 1096.45 985.24 969.4 940.08 938.65 960.48 883.36 847.22 842.96 786.76 721.67 644.15 614.72 545.75 501.77 441.41 396.58 385.55 392.86 462.35 499.31 491.85 467.44 482.5 495.23 510.72 554.18 628.32 650.64 548.37 607.39 588.01 554.72 499.75 480.03 677.55 933.96 1028.2 1057.1 1145.99 1187.91 1101.87 1188.98 1202.4 1084.08 1215.36 1134.46 1302.73 1430.62 1430.65 1577.12 1696.2 1680.3 1689.46 1911.15 2091.26 2124.31 2101.04 2094.68 2211.29 2285.96 2382.51 2317.42 2408.2 2556.9 2361.6 2285.68 2425.32 2512.6 2465.43 2258.63 2205.36 2003.11 2126.16 2174.37 2355.99 2394.39 2250.96 2052.39 1773.68 1645.22 1531.53 1606.59 1643.44 1887.22 2084.38 2245.43 2114.7 2031.31 1837.59 1588.93 1357.43 1211.71 1200.69 1205.26 1183.3 1191.43 1233.65 1234.78 1278.29 1286.7 1345.31 1426.09 1542.56 1412.39 1367.76 1425.04
2052.38 1998.24 2014.07 2168.76 2278.91 2319.35 2277.58 2336.59 2399.21 2405.01 2335.18 2283.38 2218.6 2128.57 2008.41 1871.75 1736.56 1586.65 1461.15 1371.71 1257.71 1113.98 995.51 990.97 995.79 1000.27 888.39 904.86 904.28 935.39 936.9 956.1 1073.9 1254.63 1094.77 912.85 938.67 891.83 881.25 887.44 837.0 787.97 755.37 712.39 647.33 607.78 555.55 508.55 436.94 407.56 361.94 343.2 347.61 460.25 461.93 447.89 435.68 437.3 469.46 478.38 525.71 536.81 527.92 494.56 481.4 454.47 394.32 411.9 432.39 563.6 842.63 867.97 917.16 1049.71 1034.61 935.53 1063.11 1035.9 993.18 1048.97 1196.04 1245.73 1278.02 1494.32 1546.99 1505.65 1557.49 1755.67 1980.02 1942.05 2055.94 1980.61 2033.51 2032.75 2191.9 2251.65 2189.28 2385.5 2435.92 2282.13 2163.95 2354.29 2459.35 2374.67 2261.25 2076.63 1985.13 1952.74 2027.61 2173.8 2337.99 2290.03 2113.34 1968.01 1863.04 1685.21 1438.34 1630.45 1858.53 2020.71 2192.32 2104.95 1922.65 1735.14 1597.22 1400.68 1195.96 1129.39 1158.79 1082.42 1134.72 1182.18 1216.55 1223.85 1240.83 1281.02 1367.39 1527.05 1386.07 1299.22 1338.06
1988.96 1949.78 1947.54 2018.15 2114.01 2176.7 2209.91 2262.06 2337.07 2346.48 2260.53 2164.99 2123.1 2101.59 2062.02 1960.46 1825.34 1682.49 1515.26 1387.4 1235.9 1111.01 972.73 977.66 997.49 1011.58 1010.99 812.9 832.79 877.82 889.86 915.79 1103.67 1240.88 1086.34 923.72 822.49 840.7 826.76 826.92 781.56 730.54 678.97 644.4 571.26 542.16 506.6 462.63 414.03 348.64 325.28 302.46 303.1 367.46 402.54 403.69 396.49 399.13 402.02 418.2 444.02 466.51 451.13 404.96 368.71 365.9 364.92 364.63 382.16 585.73 666.96 764.51 885.6 962.96 906.54 779.15 913.46 848.04 925.85 960.29 1088.72 1139.83 1343.56 1400.14 1362.22 1420.64 1632.38 1781.3 1874.28 1894.29 1882.24 1865.13 1859.33 1991.87 2041.51 2078.17 2160.25 2300.94 2354.34 2136.77 2088.58 2388.45 2371.38 2261.45 2263.29 2097.13 1853.57 1791.89 1782.87 1873.84 2187.33 2279.55 2167.77 2055.34 1919.11 1609.74 1459.1 1586.48 1746.17 1961.82 2154.34 2029.24 1956.91 1755.19 1582.81 1421.52 1229.97 1067.66 1108.02 1050.98 1058.55 1095.19 1119.11 1138.99 1175.05 1222.16 1359.31 1493.12 1404.06 1318.01 1304.66
1726.66 1684.4 1777.35 1963.34 2051.76 2062.12 2116.07 2205.31 2274.18 2296.12 2234.19 2088.02 1956.07 1931.01 1898.87 1841.33 1751.39 1673.07 1545.75 1404.55 1242.76 1109.28 998.15 993.85 1014.09 1025.8 1007.51 718.82 740.14 799.9 860.46 949.07 992.35 1197.19 1069.16 898.36 830.39 810.56 755.45 766.44 708.31 659.32 591.14 558.34 514.08 476.34 418.91 377.63 346.22 307.79 289.16 279.39 271.6 278.24 321.92 334.12 329.1 316.69 333.24 384.75 383.66 388.61 364.08 335.99 294.68 303.98 329.64 329.26 373.95 513.66 659.4 674.16 832.51 784.64 741.1 686.31 721.84 662.37 783.75 926.4 950.36 1136.62 1208.55 1200.02 1200.0 1414.52 1542.17 1706.11 1701.39 1777.6 1688.94 1696.14 1674.7 1867.7 1974.87 1918.57 2125.74 2295.46 2224.56 1994.22 2193.17 2431.29 2245.24 2104.87 2130.76 1982.04 1858.98 1615.46 1658.99 1828.15 2122.72 2221.47 2154.53 1999.15 1888.6 1743.98 1586.97 1669.97 1801.28 1939.85 2079.14 1968.8 1812.25 1760.45 1670.27 1480.52 1328.77 1115.16 1044.44 1011.42 1000.65 1040.53 1059.88 1082.69 1106.19 1237.17 1250.82 1427.1 1438.57 1312.75 1290.81
1529.66 1473.88 1591.39 1797.54 1952.51 1998.67 2006.72 2116.56 2223.56 2221.83 2220.53 2148.84 1989.63 1842.25 1770.69 1682.73 1593.08 1512.07 1405.54 1303.14 1202.86 1071.38 1005.32 1005.78 1022.77 1039.43 961.55 848.7 688.96 742.56 811.09 869.75 942.83 1113.82 1022.92 909.77 839.55 804.37 674.67 715.4 663.79 597.8 538.15 507.29 468.75 416.88 353.96 310.09 298.48 262.55 259.85 258.86 253.28 267.49 286.63 287.99 272.82 263.62 283.7 327.9 334.58 337.66 314.54 301.43 296.01 275.5 277.44 311.26 343.26 476.88 499.33 650.06 706.66 609.16 567.6 582.68 591.18 600.33 671.37 769.47 936.37 973.02 1096.91 1039.09 1098.24 1275.99 1413.19 1617.33 1623.42 1663.73 1571.83 1503.99 1598.61 1710.54 1767.79 1917.65 1968.96 2209.79 2120.27 1946.2 2128.44 2265.27 2108.97 1918.2 1959.43 1924.24 1673.83 1497.62 1615.72 1740.96 1938.04 2114.99 2184.0 1962.6 1694.85 1513.95 1465.73 1666.92 1794.66 1905.22 1961.86 2005.23 1804.03 1671.07 1505.54 1411.56 1375.98 1156.7 953.89 944.43 945.36 990.26 1008.82 1032.89 1067.63 1144.59 1255.73 1342.15 1325.91 1273.29 1211.56
1499.86 1486.88 1531.56 1666.28 1837.2 1957.51 1994.38 2020.66 2111.89 2155.2 2171.11 2141.92 2099.38 1974.13 1804.44 1637.95 1516.76 1418.67 1294.18 1163.54 1050.35 1003.99 1000.23 1007.11 1029.78 994.01 694.75 614.16 606.01 653.88 713.31 794.9 908.67 972.4 950.33 886.79 828.88 780.72 711.98 677.64 618.44 553.86 495.33 466.57 419.9 359.01 293.02 243.24 239.28 237.95 231.33 233.43 236.21 249.03 256.28 253.7 240.99 224.77 237.52 257.41 270.87 277.75 273.54 274.59 266.19 248.58 238.41 268.11 297.28 410.7 515.67 570.34 530.21 498.67 501.97 541.48 499.96 491.35 541.33 679.09 711.41 903.96 912.04 844.99 1083.14 1182.7 1323.65 1466.99 1374.05 1474.61 1456.51 1403.74 1513.91 1655.01 1737.22 1767.28 2030.97 2095.3 1974.15 1842.36 2071.37 2207.02 1988.68 1852.74 1764.32 1836.73 1698.88 1461.35 1436.71 1569.96 1636.17 1866.07 2105.04 1903.33 1625.12 1440.77 1322.24 1560.73 1690.46 1800.88 1845.39 1975.4 1874.29 1751.86 1551.18 1390.19 1212.52 1076.21 912.73 900.98 884.27 928.16 943.49 964.75 1006.16 1099.91 1172.11 1225.71 1239.26 1188.6 1127.56
1541.39 1522.23 1500.7 1573.18 1774.82 1965.16 1999.74 1998.72 2017.61 2095.37 2123.33 2060.93 2057.86 2037.04 1961.79 1767.48 1616.47 1478.98 1340.03 1170.1 987.57 937.28 968.96 1015.61 1030.32 802.36 475.15 496.52 539.95 596.18 661.7 744.62 802.91 851.5 845.58 824.88 795.84 768.56 708.87 634.78 570.75 530.8 484.08 438.85 374.29 307.9 246.94 195.86 199.49 201.71 206.12 211.24 210.68 225.94 226.67 224.55 218.41 208.48 210.7 209.6 209.42 221.46 230.05 236.83 220.44 209.17 194.83 229.51 248.39 331.4 324.01 320.58 315.28 332.37 399.56 453.07 354.26 327.57 381.24 490.88 570.91 737.31 695.87 729.16 930.41 1085.98 1263.91 1298.14 1212.14 1385.4 1290.15 1253.84 1481.11 1477.78 1574.87 1737.67 1993.84 2009.7 1796.85 1921.42 2029.59 2099.77 1882.28 1680.79 1565.48 1584.78 1606.07 1553.76 1283.13 1428.35 1431.85 1656.68 1996.02 1923.16 1768.12 1574.82 1327.3 1298.1 1523.29 1671.35 1757.52 1803.25 1922.76 1765.84 1542.18 1374.63 1282.56 1124.22 953.16 823.92 812.48 858.52 870.04 905.94 976.47 1026.4 1077.04 1133.47 1131.82 1104.82 1049.33
1700.82 1649.42 1564.87 1500.91 1763.56 1993.64 1950.26 1956.83 1999.92 2034.07 2052.58 2017.43 1957.88 1900.41 1950.86 1834.7 1714.87 1563.27 1416.93 1214.42 998.24 873.46 916.63 1000.1 972.67 661.98 463.37 418.35 479.54 533.5 586.2 652.11 709.01 758.32 785.16 782.64 780.77 753.99 687.13 569.43 527.29 519.88 480.43 415.45 335.05 266.06 214.41 179.76 166.32 171.67 182.28 189.34 198.45 205.52 205.68 204.21 191.43 197.11 194.09 187.83 187.4 181.7 197.93 211.09 206.15 183.43 162.01 188.79 215.21 218.08 174.1 179.49 182.75 243.59 343.34 273.86 252.97 251.81 287.49 384.98 525.12 529.52 556.36 747.15 802.8 984.54 1111.55 1111.6 1132.98 1143.08 1147.98 1191.36 1410.76 1413.04 1597.81 1762.46 1934.99 1861.73 1711.03 1735.97 1946.05 2057.27 1866.81 1701.76 1483.27 1405.11 1367.51 1406.81 1256.25 1228.51 1244.35 1512.23 1809.36 1920.16 1781.77 1568.83 1481.4 1343.01 1226.63 1391.84 1556.23 1657.94 1745.89 1858.04 1660.37 1471.07 1355.25 1233.99 998.18 803.46 745.99 760.08 807.75 859.9 922.55 945.99 979.16 1013.68 1033.62 1025.3 1002.15
1913.91 1863.14 1780.18 1726.09 1745.03 1718.95 1738.77 1816.89 1939.12 2003.44 2014.69 1973.52 1901.16 1772.97 1820.67 1825.54 1779.05 1606.25 1442.33 1240.41 1063.39 911.52 858.37 913.68 857.83 489.02 440.78 406.21 429.74 460.58 536.0 590.03 642.18 685.9 711.69 741.33 760.78 697.32 605.65 509.88 491.52 499.38 451.87 372.3 291.93 233.27 192.33 165.51 150.31 149.89 161.83 171.86 182.09 190.8 190.08 188.69 185.3 185.32 183.15 180.23 178.8 176.06 180.97 184.94 176.39 163.71 149.32 171.03 187.26 160.0 134.15 137.42 135.19 92.81 148.39 157.47 174.65 178.57 239.86 366.03 379.21 391.05 459.72 566.0 745.67 884.45 930.2 927.34 955.84 991.01 1003.36 1179.09 1209.69 1353.56 1525.97 1744.96 1857.0 1802.51 1602.86 1640.2 1895.56 2021.02 1858.16 1670.62 1491.81 1383.27 1207.33 1198.03 1131.84 1059.77 1286.15 1468.6 1692.54 1881.56 1772.29 1678.03 1586.89 1449.42 1225.79 1177.39 1351.34 1466.06 1537.85 1704.86 1703.62 1504.38 1397.37 1251.11 1076.41 851.43 720.25 692.83 776.37 827.67 868.15 873.92 918.27 941.79 932.84 963.13 956.97
2008.54 1997.55 1987.96 1994.05 1782.94 1502.42 1532.67 1637.04 1790.09 1917.79 1975.84 1927.53 1841.92 1749.13 1760.8 1837.63 1791.54 1568.86 1435.22 1303.97 1143.96 990.21 856.1 840.63 739.67 520.61 428.18 419.5 446.62 482.49 489.07 560.4 600.5 635.45 674.18 708.23 689.54 633.72 552.32 478.6 457.32 439.99 381.99 314.41 256.47 218.47 188.4 157.89 144.37 144.42 152.03 163.22 175.64 183.19 184.48 184.54 181.38 179.8 178.31 177.21 176.04 175.1 173.73 177.6 163.72 151.39 116.81 144.27 140.32 133.32 107.72 104.45 121.5 87.56 99.9 107.56 119.92 124.15 137.95 179.92 240.48 277.1 341.6 498.03 575.88 734.49 782.67 784.48 779.35 797.12 895.05 1014.94 1131.7 1307.4 1506.45 1710.23 1608.03 1505.67 1388.76 1535.32 1621.76 1891.13 1940.48 1856.18 1713.74 1508.54 1365.97 1162.82 1013.44 1097.9 1239.11 1555.59 1752.66 1681.16 1558.25 1600.85 1476.96 1565.5 1352.4 1045.92 1203.28 1272.85 1400.16 1571.99 1651.75 1577.18 1396.38 1290.42 1148.2 963.27 810.49 723.88 753.09 793.48 809.38 815.3 829.23 852.93 856.46 869.71 920.15
1971.17 1979.49 1980.0 1934.24 1758.01 1549.25 1490.08 1521.67 1635.85 1744.92 1810.02 1809.4 1761.78 1674.39 1690.93 1740.15 1767.8 1625.92 1494.46 1381.09 1210.77 1051.58 913.88 815.44 693.54 548.19 447.97 440.72 470.62 497.17 502.39 500.73 498.12 492.9 490.28 633.6 623.94 642.81 546.38 457.15 409.04 359.76 291.01 248.73 221.85 206.02 182.9 153.27 141.42 141.85 149.04 159.68 171.47 178.1 179.13 179.29 178.6 176.29 175.93 176.06 175.08 172.55 171.83 169.91 162.15 152.11 142.88 141.83 135.48 115.03 97.58 103.92 92.33 90.31 79.27 93.1 109.07 111.46 120.46 135.45 165.93 216.58 302.36 348.7 436.43 585.99 615.39 622.71 703.44 890.13 1006.54 1015.53 1186.81 1392.15 1582.45 1615.93 1513.25 1348.72 1288.08 1387.48 1592.15 1687.42 1869.46 1918.43 1752.95 1625.55 1448.67 1236.18 1125.58 1066.65 1255.26 1497.61 1638.49 1467.94 1453.39 1512.97 1407.82 1499.98 1360.74 1089.9 997.84 1177.92 1242.16 1463.45 1468.7 1648.9 1410.09 1252.87 1074.96 1018.45 877.12 789.1 781.59 781.97 751.15 756.19 757.74 772.16 748.76 778.29 838.78
1889.49 1896.87 1887.59 1831.11 1703.42 1563.94 1491.99 1493.12 1538.67 1605.19 1650.15 1650.8 1614.72 1555.88 1589.35 1706.01 1747.34 1592.22 1447.76 1358.3 1240.97 1073.76 914.64 768.22 653.08 480.4 446.09 460.72 490.66 503.3 502.72 499.57 498.27 498.7 500.43 509.07 551.29 536.98 518.32 425.65 350.55 283.93 216.27 200.8 194.24 189.84 172.39 148.61 139.4 140.44 147.52 157.35 168.42 174.34 174.84 175.55 175.58 173.15 173.48 174.5 171.49 169.48 166.95 163.88 164.43 152.68 149.1 141.75 133.0 108.26 103.48 108.49 87.86 77.87 76.71 85.37 100.39 98.71 105.49 123.09 150.84 216.62 349.01 397.5 450.68 463.36 577.88 728.09 832.48 951.79 1071.88 1211.89 1288.14 1408.57 1522.52 1478.89 1419.15 1349.95 1150.13 1248.77 1385.32 1596.48 1764.73 1791.4 1829.2 1776.8 1549.43 1315.48 1154.4 1088.89 1192.73 1478.27 1535.1 1305.95 1334.48 1413.34 1255.94 1405.65 1300.73 1109.72 923.4 990.65 1115.37 1280.64 1367.25 1443.03 1550.24 1258.98 1103.56 946.23 880.76 804.35 749.69 682.11 676.86 653.01 656.61 682.5 671.34 684.1 628.64
1764.28 1778.37 1763.97 1717.29 1628.57 1538.83 1497.76 1495.0 1502.44 1524.87 1541.47 1533.89 1512.68 1482.49 1478.16 1591.66 1684.31 1579.69 1395.92 1251.31 1153.9 1011.32 842.9 689.15 648.02 533.4 474.23 482.36 499.17 499.75 493.38 486.22 481.7 479.99 480.33 475.81 455.46 422.1 412.32 353.17 288.43 237.33 203.69 188.37 176.28 168.24 157.49 143.01 137.57 139.5 146.23 155.15 165.67 171.95 173.99 174.04 172.73 170.28 169.56 169.54 168.43 165.6 164.11 162.31 158.19 153.22 147.91 145.38 140.0 126.95 91.3 116.8 114.99 106.97 105.57 98.2 99.54 92.61 100.23 118.72 144.3 263.26 402.01 488.63 592.79 615.91 657.49 766.89 932.17 1046.32 1171.98 1200.21 1301.78 1440.6 1397.38 1338.8 1261.91 1186.91 1114.71 1173.45 1353.57 1523.54 1506.71 1606.77 1724.47 1757.83 1647.93 1403.82 1214.6 1155.96 1174.06 1401.86 1526.15 1419.95 1233.66 1255.14 1114.94 1224.29 1340.75 1167.31 993.01 963.28 1025.49 1103.36 1202.09 1322.55 1502.71 1337.67 1126.99 1009.04 884.96 799.23 723.93 663.82 617.54 589.56 595.85 603.77 581.64 565.13 540.04
1614.82 1636.02 1636.05 1602.18 1539.63 1497.89 1498.2 1502.36 1502.38 1500.75 1502.04 1498.2 1481.8 1448.15 1433.08 1473.18 1551.83 1530.51 1419.57 1291.59 1167.09 1031.64 891.63 780.17 687.32 581.77 494.63 497.23 498.4 488.08 474.4 461.34 450.73 441.55 430.89 409.93 365.18 326.01 307.42 278.83 241.55 214.28 200.09 184.83 166.33 156.51 148.3 138.81 136.06 138.73 144.97 153.63 164.03 170.47 173.01 172.33 170.73 168.23 166.98 166.92 165.79 164.83 162.47 157.35 152.22 148.11 150.05 146.4 143.76 140.13 125.29 131.03 123.21 117.06 113.33 109.13 105.36 101.19 99.74 118.89 129.56 186.12 275.83 416.78 586.7 651.14 770.15 799.36 956.46 957.97 1002.0 1168.57 1358.75 1281.76 1248.51 1164.6 970.17 912.39 921.49 1121.11 1236.0 1328.63 1293.09 1388.41 1491.34 1638.07 1683.16 1541.88 1249.84 1109.27 1127.45 1258.42 1311.17 1365.66 1301.4 1167.54 1119.92 1155.44 1256.24 1272.92 1028.04 995.2 1017.72 1080.01 1166.16 1259.43 1381.83 1404.94 1249.92 1037.95 907.15 830.39 705.75 621.31 574.41 545.09 493.3 475.73 503.83 479.64 479.04
1443.41 1462.33 1490.82 1484.78 1443.78 1436.63 1456.91 1484.62 1503.46 1494.34 1502.05 1505.03 1465.25 1403.05 1386.71 1420.29 1479.69 1496.88 1383.51 1280.05 1089.76 965.72 895.45 801.49 671.05 582.22 515.24 499.48 488.09 468.2 447.21 427.54 409.69 393.03 371.04 337.66 291.18 229.0 210.62 215.7 201.86 192.84 185.23 172.72 156.3 146.82 140.22 134.76 134.03 137.24 143.29 151.03 161.21 168.39 171.1 169.88 168.19 165.27 163.74 164.15 163.53 162.21 158.71 153.14 149.13 146.6 147.13 144.31 142.8 148.32 143.56 142.31 136.42 100.99 116.15 111.95 110.28 108.5 109.87 118.73 121.96 136.9 217.21 296.35 481.17 628.78 705.69 764.36 913.5 1028.16 1088.69 1184.43 1078.09 1017.85 970.84 909.83 800.21 712.57 838.36 872.14 1051.18 1090.02 1223.46 1423.98 1589.48 1705.71 1579.81 1519.16 1115.36 971.41 931.03 1063.09 1207.44 1295.8 1325.81 1175.57 1114.58 1118.76 1128.74 1102.95 1010.8 989.34 996.91 1050.86 1119.96 1217.33 1308.42 1324.01 1173.9 979.58 862.31 740.16 612.44 529.71 475.95 447.63 433.71 431.77 456.49 461.65 521.81
1205.06 1201.45 1223.81 1271.66 1294.19 1327.96 1367.9 1396.6 1406.8 1389.44 1429.98 1503.22 1437.22 1318.8 1334.01 1409.16 1494.02 1524.45 1413.72 1255.83 1091.99 988.01 874.51 758.62 634.39 555.88 520.1 495.78 473.76 444.99 416.86 390.54 367.51 344.71 316.06 279.33 242.36 197.14 188.5 184.52 177.79 172.85 167.88 159.08 147.41 140.01 134.87 131.19 131.94 135.38 141.05 148.46 158.39 165.5 167.21 165.17 164.89 160.1 159.86 161.44 159.82 155.43 153.35 148.83 143.49 142.42 141.73 143.16 139.79 146.78 146.96 143.76 143.2 137.38 131.3 124.58 115.86 111.86 111.74 112.77 117.48 120.75 174.87 306.82 470.33 526.1 683.6 809.48 903.43 924.07 999.97 1046.46 911.91 904.55 810.33 799.82 671.56 753.71 920.28 1004.85 1103.64 1244.38 1408.39 1558.02 1530.98 1548.79 1391.41 1233.08 949.79 834.87 931.9 1025.87 1118.01 1155.75 1163.7 1074.82 1010.78 1021.41 1020.7 990.15 953.06 930.09 977.39 1082.09 1072.91 1157.16 1147.49 1125.91 1005.22 912.24 818.22 701.97 552.93 460.71 434.62 412.9 404.1 417.45 441.27 472.36 482.53
1044.56 1008.51 1011.35 1075.46 1140.78 1203.77 1246.48 1258.6 1230.44 1167.86 1144.59 1219.84 1281.15 1165.07 1247.79 1416.28 1523.13 1552.41 1452.05 1226.69 1084.94 957.79 823.64 733.78 681.34 559.82 509.33 485.5 454.71 351.68 329.59 302.53 285.9 294.3 271.53 237.67 214.21 186.39 183.31 159.38 156.82 154.42 151.42 145.98 138.5 133.2 129.75 127.81 129.25 133.09 138.47 145.08 154.09 160.74 162.41 159.75 159.05 156.38 154.77 157.71 153.46 149.43 147.07 143.98 140.41 137.42 135.05 132.22 136.12 141.26 144.13 144.19 141.49 138.81 129.22 125.41 120.45 113.94 106.96 108.39 118.24 120.57 157.3 263.85 374.59 555.02 583.46 701.58 877.54 730.53 759.22 891.74 795.54 759.12 697.63 588.8 670.83 817.72 975.74 1151.24 1266.68 1395.66 1490.43 1450.76 1403.82 1364.58 1278.49 1060.12 929.75 900.39 905.45 954.98 1036.92 1050.55 1029.51 1001.91 954.57 931.65 926.49 911.29 873.3 883.28 878.3 959.9 1001.34 1010.34 1021.12 1024.77 922.27 839.42 758.18 684.38 518.71 378.07 373.24 387.36 386.82 401.78 452.56 439.62 502.52
999.41 1001.1 997.44 1001.21 1041.47 1104.62 1135.94 1118.84 1052.88 1002.11 987.33 980.95 1210.7 1321.55 1207.26 1456.35 1554.49 1569.47 1403.75 1121.74 1035.34 923.98 841.04 748.51 617.14 534.66 497.11 461.65 372.06 340.61 315.04 283.37 262.98 246.2 235.23 209.32 195.75 183.93 179.08 140.51 138.73 138.08 136.87 134.02 129.79 126.48 124.29 124.21 126.16 130.09 135.29 141.27 148.63 152.83 153.16 153.45 151.19 148.54 148.75 148.78 144.8 142.04 139.43 138.89 135.0 131.37 128.47 127.17 127.86 138.97 141.91 141.45 139.14 137.02 129.96 116.48 117.1 115.19 119.97 118.59 122.46 119.78 124.46 168.77 343.25 413.13 550.82 776.88 802.69 706.55 698.23 740.56 690.56 598.89 564.82 677.27 827.53 895.38 1001.16 1207.57 1376.37 1365.13 1347.27 1361.69 1336.15 1265.05 1093.3 949.78 916.55 910.96 883.36 953.85 963.02 976.68 975.5 932.2 891.14 831.02 806.2 784.94 790.07 784.15 774.31 871.3 919.63 916.39 917.79 950.49 870.7 835.42 740.11 643.12 557.01 414.25 398.63 372.34 385.97 402.9 418.57 461.28 527.83
1026.59 1018.45 996.3 988.99 1002.25 1037.38 1048.03 1015.36 990.1 963.14 920.96 917.37 1024.57 1237.86 1154.17 1192.28 1341.9 1322.41 1110.53 1001.72 990.51 887.68 780.74 676.01 543.64 499.96 487.08 402.77 361.82 328.34 300.24 265.51 242.99 224.13 205.79 187.3 169.73 191.64 152.05 125.68 123.81 124.1 124.31 123.34 121.24 119.69 118.84 119.68 122.55 126.84 131.9 137.27 143.75 146.18 144.07 145.75 144.21 141.38 141.15 138.99 138.78 136.43 134.58 134.7 131.94 128.09 124.21 120.73 113.77 128.84 137.26 136.25 137.69 134.86 127.64 103.91 91.8 114.82 119.43 120.96 122.48 121.83 123.12 141.86 227.36 358.74 574.27 670.94 636.08 614.92 585.56 622.61 600.42 497.36 613.67 713.29 900.9 1049.17 1141.61 1255.76 1295.77 1200.54 1297.8 1339.99 1143.51 1136.03 1090.63 1028.32 811.73 883.04 887.26 904.27 963.31 935.79 891.74 845.11 765.9 701.69 675.33 661.8 681.84 675.1 592.43 808.89 803.97 840.92 887.01 887.26 865.43 792.04 722.39 743.57 556.76 459.69 395.52 382.92 381.78 397.92 438.97 476.81 511.38
1006.82 942.97 862.3 868.76 931.72 989.72 986.6 945.9 898.31 862.76 834.07 846.92 910.25 1005.0 1038.9 986.62 1004.18 1002.7 940.1 907.57 874.57 800.55 680.7 564.35 502.37 490.73 463.22 384.31 344.88 311.08 281.83 244.83 220.87 201.31 182.99 164.06 147.35 133.7 121.34 111.14 109.28 109.99 111.05 111.57 111.39 111.54 111.81 114.09 117.56 122.15 127.39 132.71 139.01 142.25 141.56 141.78 139.98 136.18 135.36 133.8 133.34 130.61 130.43 130.48 129.03 124.38 119.39 111.59 101.6 91.79 123.48 132.27 131.34 117.15 113.07 87.15 98.1 105.32 105.8 116.08 123.43 123.19 122.16 122.14 151.85 306.51 467.4 576.89 650.61 486.33 536.04 510.17 451.99 611.06 724.44 831.8 1006.03 1114.0 1228.26 1220.29 1116.31 1017.27 1127.87 1229.62 1112.19 949.09 936.01 914.96 735.24 747.69 827.39 950.36 873.04 852.8 805.54 759.52 669.42 597.81 542.86 522.43 594.07 654.48 595.18 685.17 706.06 736.7 771.1 810.38 868.01 856.51 686.61 598.17 496.66 449.94 400.49 374.91 382.08 384.26 410.77 445.49 465.69
715.57 600.85 576.77 674.6 769.19 842.0 852.01 818.51 776.55 744.31 726.78 734.53 791.48 864.29 936.02 975.95 974.08 925.42 848.3 790.32 740.05 674.68 587.15 506.85 485.52 458.69 408.43 364.51 328.24 295.68 266.93 229.34 205.03 185.06 166.99 148.94 132.62 120.04 109.88 101.39 99.69 100.34 101.59 102.9 103.66 104.53 105.91 109.15 113.3 117.99 123.28 129.06 135.81 140.4 140.73 140.17 138.64 133.46 132.2 132.22 131.06 129.8 129.8 129.29 126.33 120.63 112.41 101.46 89.47 78.83 70.0 125.19 125.48 105.44 79.23 90.48 106.08 109.97 119.71 122.53 123.67 119.92 111.2 112.17 211.54 334.01 329.94 444.43 590.69 505.54 349.43 342.15 461.27 588.86 718.06 875.78 1019.84 1142.06 1089.0 1008.57 1001.14 866.55 994.02 1098.09 1073.75 939.82 844.15 791.02 634.07 596.91 765.96 812.54 838.45 927.73 791.16 675.14 622.63 482.85 472.28 500.72 543.81 550.35 592.25 603.42 607.61 639.25 680.82 769.44 805.17 729.44 658.09 556.39 472.08 404.48 351.63 318.84 331.81 352.47 384.83 400.18 430.71
518.23 435.57 464.47 551.26 637.34 702.01 716.02 693.82 654.01 616.17 593.74 598.23 660.5 728.67 791.61 832.89 836.94 803.96 753.49 701.12 644.57 586.27 524.45 483.43 449.67 422.11 381.69 343.54 310.71 280.15 252.03 214.91 190.97 170.94 153.16 136.05 120.74 109.05 100.32 92.93 91.4 91.71 93.18 94.65 96.35 97.99 100.11 103.95 108.34 113.3 118.7 124.53 132.3 137.67 139.0 137.97 136.21 130.17 130.77 131.45 130.23 129.79 129.36 128.78 125.04 118.57 108.44 96.09 80.62 115.95 121.35 122.73 113.73 95.74 107.22 107.09 110.62 113.29 118.23 124.58 125.03 115.92 107.88 130.55 244.04 256.91 288.32 475.15 523.98 418.65 305.39 372.95 538.78 644.83 683.12 915.96 1052.3 1034.99 900.27 886.43 876.2 793.45 898.68 972.59 942.46 911.67 765.74 628.02 562.96 607.34 745.75 688.12 782.17 920.23 819.74 653.36 591.35 512.44 482.79 468.46 488.63 487.71 528.25 532.24 502.45 554.9 637.85 692.59 690.07 628.24 566.08 498.53 398.28 332.92 326.97 274.91 270.99 295.03 363.27 367.68 414.89
435.77 410.42 468.11 510.22 562.43 612.07 622.14 592.01 542.88 515.48 499.04 500.69 558.25 618.54 668.55 698.58 710.0 696.6 663.02 619.41 570.31 526.46 496.37 462.19 419.11 383.88 356.81 322.74 293.32 264.75 238.12 202.06 178.53 158.71 141.21 124.82 110.78 100.07 92.14 85.35 83.83 84.09 85.43 87.27 89.58 91.61 94.44 98.63 103.12 108.18 113.54 119.78 127.52 133.75 136.32 134.38 131.24 129.37 128.01 129.66 127.76 126.99 121.35 126.26 122.97 117.23 107.28 94.9 103.09 123.89 122.48 87.24 102.79 105.6 104.78 112.3 114.58 115.26 119.83 119.73 125.36 107.68 120.78 200.63 321.6 373.43 430.46 473.41 417.53 327.11 331.62 443.64 611.59 696.52 845.49 954.65 987.69 1015.08 910.76 770.54 806.25 666.73 780.57 893.71 825.66 819.63 809.8 676.35 494.54 575.74 616.72 575.71 697.98 843.26 834.76 661.68 529.17 458.82 425.51 401.99 415.62 403.2 384.58 405.88 404.83 479.71 544.81 617.21 600.67 520.69 469.05 391.92 328.88 288.23 264.26 231.67 211.61 261.04 341.69 366.08 394.15
475.54 486.92 497.01 500.75 520.54 554.96 547.43 504.78 454.54 432.42 427.99 462.69 502.33 544.36 578.09 598.05 609.09 604.26 583.86 553.3 519.18 499.68 482.61 412.51 374.37 349.3 324.28 294.32 268.29 243.16 218.63 184.97 162.98 143.92 127.32 111.64 98.82 89.45 82.26 76.11 74.51 74.53 75.89 77.81 80.44 83.27 86.23 90.9 95.47 100.34 105.73 111.6 118.67 123.65 125.42 124.84 122.11 118.08 118.06 120.04 120.24 120.42 94.06 113.85 118.05 113.71 104.76 93.34 116.58 118.42 118.29 118.59 105.5 105.15 101.28 97.96 107.75 112.57 114.78 119.15 120.49 124.67 136.3 197.16 290.33 331.22 367.61 375.35 304.32 291.39 398.86 493.55 581.78 645.8 802.88 762.24 826.33 975.26 808.04 721.71 658.38 637.34 756.52 752.04 687.26 672.2 643.3 680.89 494.59 470.87 486.25 559.28 761.56 732.59 684.27 596.8 469.64 429.78 379.85 348.65 361.01 368.57 341.59 374.15 389.9 452.46 505.26 534.4 501.05 456.77 407.13 330.0 252.31 222.82 212.66 209.73 230.86 242.44 249.98 337.39 425.47
341.2 441.59 454.72 453.82 464.57 493.45 469.51 406.71 349.64 338.34 360.35 408.14 463.17 501.8 516.08 529.74 541.02 541.24 532.54 515.02 499.2 487.34 464.88 376.04 349.12 324.85 301.06 273.52 249.97 226.77 204.31 172.89 152.21 134.27 118.4 103.28 91.3 82.51 75.89 70.02 68.22 68.15 69.15 71.05 73.89 76.87 79.87 84.44 88.91 93.43 98.4 103.95 109.42 112.53 113.31 113.41 112.96 109.21 108.62 108.79 108.83 109.05 88.88 105.78 111.19 108.29 100.94 90.97 100.7 116.87 116.75 116.24 114.68 115.7 114.51 113.22 115.31 112.73 110.22 115.96 121.23 129.19 136.82 207.82 274.28 235.45 235.15 264.86 226.65 251.32 415.02 437.95 546.1 655.28 766.06 631.98 719.48 818.07 714.59 610.58 529.95 632.19 659.64 585.59 546.65 518.76 439.83 547.59 481.2 373.11 415.21 558.29 728.68 604.83 547.35 464.67 433.71 385.85 320.01 255.42 307.53 332.68 354.05 376.89 392.02 406.37 443.06 436.49 410.6 350.62 304.88 241.33 218.14 210.19 199.62 203.68 215.03 212.43 259.09 337.31 454.22
255.38 303.23 313.79 302.18 310.23 333.38 324.98 276.64 235.33 258.44 302.26 356.59 417.62 468.42 493.2 500.57 507.54 507.57 506.32 501.85 492.51 475.21 394.9 351.2 325.69 302.18 279.63 253.85 232.23 210.92 190.48 161.55 142.48 125.64 110.61 96.34 85.04 76.68 70.38 64.6 62.8 62.16 62.9 64.5 67.01 69.91 72.97 77.53 81.55 85.48 89.97 94.82 98.84 101.64 103.75 100.73 100.7 100.84 100.66 97.97 100.64 100.71 90.99 99.74 102.8 101.28 95.72 87.36 76.48 99.64 101.63 98.35 106.23 106.75 107.46 110.53 109.66 112.83 114.75 112.27 116.75 122.28 129.92 142.11 157.74 155.98 161.2 170.83 174.07 189.48 267.87 437.08 615.5 596.26 657.49 496.32 572.22 725.94 736.93 600.45 515.63 554.16 580.17 499.62 304.68 276.57 292.8 386.29 300.18 344.56 439.06 521.2 479.57 576.11 481.64 395.95 401.48 342.57 261.88 197.69 238.78 277.46 283.74 311.29 345.15 375.54 374.39 372.69 345.47 287.24 265.56 242.05 219.75 200.49 191.41 195.09 203.52 230.56 265.83 308.71 362.35
200.41 199.39 200.26 195.21 199.38 211.58 212.78 200.94 198.73 217.49 260.42 319.4 389.25 454.8 495.36 506.82 502.12 499.19 499.86 498.11 482.95 402.95 371.69 330.29 305.75 283.25 261.75 237.34 217.05 197.52 178.51 152.04 134.54 119.08 104.97 91.51 80.81 72.94 66.72 60.83 58.7 57.9 58.17 59.67 62.09 64.79 67.71 72.27 75.77 79.23 83.36 87.23 89.7 91.64 98.09 91.44 93.16 95.38 94.57 93.58 94.42 90.25 76.01 82.98 94.41 95.09 90.99 84.14 75.02 70.42 87.02 94.78 97.09 94.92 101.04 102.65 103.04 103.13 107.5 111.06 112.12 113.24 114.39 116.75 118.78 129.43 139.47 145.32 155.53 186.35 324.19 476.79 524.76 510.82 552.08 522.24 618.89 669.71 591.34 564.11 456.06 408.91 360.4 350.83 202.12 120.71 114.13 260.9 219.29 344.23 330.2 431.69 475.76 471.84 358.61 341.12 306.44 268.45 217.48 181.31 209.16 239.61 239.99 266.41 286.89 358.46 336.15 327.24 296.97 269.92 242.14 224.95 201.32 192.62 187.61 184.51 190.42 205.41 241.81 248.03 274.39
177.46 159.74 150.04 150.44 159.64 169.94 169.68 174.28 184.79 202.71 231.84 284.69 367.44 469.9 525.65 539.15 532.68 514.92 502.37 487.06 412.68 379.92 349.67 310.18 286.81 265.13 244.5 221.49 202.48 184.39 167.16 142.85 127.07 112.83 100.0 87.3 77.52 69.89 63.83 58.05 55.32 54.29 54.44 55.49 57.66 60.31 63.1 67.17 70.36 73.44 76.61 79.61 80.53 78.26 73.94 78.23 84.01 88.31 89.2 89.25 89.47 83.73 70.45 76.68 88.44 89.63 86.54 81.05 73.39 66.9 91.77 91.39 83.48 80.74 91.26 94.33 96.43 97.36 101.38 100.85 105.4 107.6 111.53 107.69 107.07 107.63 111.07 120.56 136.08 196.82 290.52 444.1 397.82 325.43 459.47 465.46 593.35 531.28 497.81 491.86 375.21 296.54 191.91 187.89 149.36 142.82 141.19 163.86 172.69 229.58 283.73 354.24 430.17 395.37 326.78 288.28 255.95 215.87 187.58 166.24 180.17 204.56 200.71 202.92 239.22 274.73 278.7 277.38 261.2 241.79 222.74 206.01 194.99 183.29 174.87 174.25 191.28 190.31 204.77 204.83 173.54
140.25 122.7 111.66 114.85 126.05 130.21 134.42 138.87 149.17 174.0 203.29 254.37 372.39 524.18 567.0 561.0 548.06 516.13 492.24 411.09 383.56 355.14 327.27 290.5 268.26 247.31 227.72 206.02 188.43 171.77 155.91 133.89 119.75 107.11 95.35 83.75 74.6 67.33 61.56 55.78 52.81 51.67 51.17 51.93 53.68 56.2 58.64 62.33 65.38 68.24 71.02 73.39 73.79 71.7 67.04 73.79 78.16 82.44 84.77 86.14 87.56 85.98 85.21 84.38 85.7 85.66 82.93 78.26 71.93 66.79 62.89 80.17 91.58 92.03 89.27 92.67 95.23 99.22 101.32 103.0 103.16 103.55 104.77 105.19 104.53 103.6 107.07 108.97 113.91 137.23 251.99 392.55 225.71 276.01 319.94 388.01 506.63 433.35 363.64 362.76 282.33 195.13 143.26 136.16 130.65 126.51 131.91 145.73 233.31 268.17 306.49 325.79 344.1 270.45 220.95 232.14 222.46 194.81 168.09 154.07 163.05 170.14 163.35 154.52 190.46 222.95 243.0 244.54 234.39 220.94 204.39 190.16 182.42 176.46 169.26 169.74 166.71 170.55 176.65 168.78 152.26
124.97 108.94 102.22 101.03 100.29 99.73 96.62 101.01 111.75 134.19 170.35 235.85 387.43 522.42 566.99 547.71 512.87 455.33 389.37 373.89 352.78 328.9 304.24 270.66 249.63 230.06 211.63 191.09 174.78 159.35 145.05 125.34 112.76 101.3 90.85 80.42 72.36 65.6 59.89 53.8 50.79 49.16 48.71 49.14 50.78 52.77 55.02 58.23 61.25 63.7 66.34 68.74 69.8 70.11 71.44 73.64 75.73 79.41 81.74 83.52 85.71 86.74 85.81 85.21 84.06 83.01 80.15 76.02 70.9 66.56 62.76 58.78 58.67 80.52 91.84 93.07 92.99 94.4 94.86 95.93 97.0 99.48 97.79 99.5 87.95 98.56 103.99 105.54 109.68 112.89 171.35 319.22 232.46 158.41 162.49 278.04 348.73 293.18 252.36 274.67 162.45 133.2 127.46 124.01 118.68 117.46 115.09 120.18 120.95 109.45 133.38 195.49 212.89 158.24 150.94 183.8 178.49 162.33 160.03 152.97 147.01 143.6 144.03 140.17 163.09 188.27 208.5 212.49 202.61 188.67 185.55 182.38 173.07 164.44 162.46 153.02 156.27 152.89 152.82 152.84 144.62
119.36 108.95 103.09 100.35 94.61 86.66 79.25 78.56 87.36 110.67 144.32 213.04 326.43 441.67 511.74 499.45 373.66 340.46 340.6 330.14 314.75 296.01 275.41 245.86 227.0 208.99 192.06 173.61 158.88 145.25 132.58 115.23 104.75 94.88 85.88 76.99 69.65 63.54 58.47 52.34 49.31 47.58 46.69 46.75 47.98 49.56 51.56 54.52 57.17 59.74 62.46 65.27 67.22 69.71 72.24 73.76 75.24 77.5 79.75 81.38 83.58 84.96 85.7 84.66 82.31 80.26 77.46 77.36 72.71 66.79 63.89 60.73 57.28 55.59 58.15 87.8 91.88 92.16 92.54 91.51 88.42 89.79 76.68 81.75 90.96 89.55 93.27 94.15 99.3 106.28 113.7 136.87 114.58 107.05 108.1 111.96 129.24 194.76 133.17 123.89 114.8 110.87 109.41 105.29 106.15 103.12 102.09 102.99 97.79 75.69 86.34 113.89 131.94 137.06 135.37 137.94 138.32 148.18 146.14 142.97 137.57 135.82 136.67 137.35 142.25 168.2 176.47 178.99 181.51 172.99 165.05 162.67 162.44 154.17 143.84 140.16 141.61 146.92 144.52 143.19 139.4
119.05 112.4 105.53 103.42 96.57 84.85 73.58 69.09 76.67 96.61 125.57 175.94 252.55 353.57 422.66 427.1 398.74 305.03 305.36 297.61 285.41 269.85 251.98 225.71 208.63 191.96 176.16 159.17 145.84 133.39 122.09 106.9 97.57 89.18 81.74 73.83 67.7 62.15 57.45 51.72 48.73 46.68 45.61 45.53 46.15 47.29 48.84 51.49 53.7 56.31 59.3 62.81 65.93 69.59 72.43 71.89 70.86 75.86 77.57 79.11 80.56 81.7 82.4 81.91 79.41 77.14 74.7 74.81 74.78 75.48 72.33 65.95 65.34 71.77 76.02 78.69 72.1 78.73 74.49 71.89 76.89 80.53 81.91 79.67 82.07 87.03 84.83 76.76 76.11 73.63 76.03 79.67 83.15 79.6 81.21 92.89 93.26 87.61 90.81 97.39 99.11 94.24 94.85 93.92 77.89 81.06 69.55 71.04 90.59 93.37 106.34 101.7 97.45 99.43 112.14 111.72 116.91 131.64 127.75 127.11 127.27 122.8 127.37 131.64 135.42 145.57 150.33 159.87 155.03 147.19 145.18 141.82 138.53 142.82 137.63 134.78 134.75 135.09 134.8 134.37 133.64
125.15 115.79 109.32 105.56 100.68 88.1 74.92 68.86 71.5 91.28 121.93 163.35 229.2 293.73 349.89 363.31 346.57 273.58 273.92 267.8 257.76 244.8 229.41 206.05 190.5 175.38 161.15 145.66 133.54 122.72 112.61 99.01 91.21 83.95 77.58 71.22 65.73 61.14 56.92 51.53 48.55 46.48 45.22 44.79 45.14 46.01 47.1 49.16 51.19 53.81 56.81 60.62 64.47 68.56 70.31 69.12 69.6 74.27 76.06 77.37 78.07 77.58 77.94 77.89 76.01 74.38 72.45 70.55 71.29 79.26 78.98 81.39 80.57 80.54 72.6 67.24 63.07 64.75 65.99 70.52 67.55 70.13 72.81 77.58 77.54 77.33 74.72 70.07 62.42 61.98 68.07 68.92 63.52 61.7 63.57 62.96 75.1 77.23 83.92 84.92 82.02 75.64 76.86 66.75 63.04 71.76 72.45 74.43 80.74 88.78 91.19 101.02 101.2 102.59 103.45 110.0 112.77 120.99 116.39 116.85 119.68 116.17 117.35 118.95 126.51 132.1 135.41 139.38 137.28 127.74 126.6 134.07 134.58 131.88 129.11 128.04 127.71 128.84 128.06 127.66 127.33
114.78 115.35 111.37 109.89 105.7 94.21 81.98 75.14 80.64 100.42 125.36 162.56 210.6 265.48 302.87 310.24 303.85 261.41 245.58 240.59 232.25 221.17 207.65 187.48 173.25 159.6 146.77 132.71 121.92 112.34 103.37 91.84 85.12 79.17 73.79 68.45 64.28 60.4 56.66 51.8 48.73 46.51 45.24 44.57 44.52 45.13 45.98 47.24 48.97 51.18 54.12 57.95 61.87 64.54 65.17 65.22 67.15 70.87 74.59 75.27 75.35 73.56 72.98 73.01 72.05 71.0 69.81 68.83 68.14 67.24 71.61 75.23 74.54 68.45 60.46 55.67 57.16 67.64 58.05 61.7 60.07 66.71 69.08 70.95 72.63 70.45 65.8 60.29 52.4 59.5 59.3 57.14 54.72 51.01 52.51 59.39 64.44 67.04 74.28 76.96 73.9 69.54 71.92 69.13 77.12 79.97 82.39 85.63 87.69 87.77 83.11 92.53 97.55 96.98 95.32 104.67 106.47 110.31 108.88 109.58 108.72 110.37 109.58 109.63 113.95 115.21 120.25 124.22 128.98 125.56 122.87 125.99 125.39 121.16 120.57 120.8 122.46 121.51 122.05 122.36 121.81
103.21 110.1 111.99 111.12 109.5 101.11 93.17 90.15 96.25 108.2 124.2 146.03 184.79 217.62 234.46 247.45 258.94 237.73 215.07 211.16 204.57 195.51 184.05 166.41 154.31 142.32 131.02 118.79 109.54 101.17 93.8 84.18 78.82 74.12 70.08 66.04 62.71 59.45 56.46 52.05 49.17 46.77 45.27 44.3 44.06 44.31 45.08 45.37 46.82 48.64 51.48 54.88 58.7 60.15 60.05 60.57 66.0 67.72 70.71 72.19 70.19 69.51 67.98 68.12 67.54 67.44 67.3 66.81 66.79 66.9 66.66 66.05 64.11 62.44 60.34 55.8 52.55 52.76 53.27 57.0 59.32 60.65 62.4 64.24 64.02 62.55 52.8 45.94 47.24 54.12 48.56 50.26 44.76 43.97 47.63 52.96 56.91 61.57 62.96 65.94 67.33 62.2 55.66 58.31 72.75 77.45 81.39 84.1 85.99 84.13 79.88 85.03 91.98 91.28 90.63 94.52 100.83 103.42 107.01 104.82 101.61 100.32 101.92 100.86 98.91 103.45 110.25 116.65 118.74 119.7 115.61 115.54 113.45 111.21 113.24 115.06 116.44 117.67 118.29 117.69 113.86
93.4 102.48 109.0 110.89 110.96 108.85 105.03 101.76 102.49 106.62 116.24 125.52 134.86 144.76 155.68 163.84 177.89 187.19 169.83 183.19 177.62 169.93 160.13 145.28 134.69 124.31 114.38 103.98 96.1 89.51 83.18 75.77 71.76 68.27 65.67 63.25 60.65 58.29 56.01 52.65 49.94 47.38 44.79 42.66 42.99 43.7 44.22 44.07 44.3 45.2 47.23 49.89 52.6 54.66 56.22 58.25 60.01 62.32 63.52 64.92 63.09 61.33 58.46 59.44 60.3 61.93 62.95 63.36 64.43 65.01 65.34 64.82 60.62 56.59 55.73 53.57 48.79 47.44 46.17 48.44 52.63 58.22 60.23 58.11 55.51 45.02 41.19 40.85 42.01 47.62 43.88 39.61 39.84 40.79 35.0 50.91 53.36 54.23 52.96 55.76 58.83 57.3 54.05 51.41 68.3 73.21 74.8 78.37 80.6 70.34 57.56 79.87 86.26 84.73 88.9 92.46 95.99 97.88 97.04 98.05 98.84 98.45 98.25 97.44 97.01 94.94 99.46 105.26 107.41 109.48 110.1 109.51 108.26 107.33 105.93 106.44 110.76 113.05 114.69 114.97 116.01
87.71 95.48 104.1 107.71 109.98 111.2 109.42 105.3 104.14 106.26 112.5 116.35 113.44 110.11 109.84 114.54 124.73 133.78 162.74 159.98 155.03 148.69 140.19 127.33 118.15 109.18 100.71 92.0 85.36 79.75 74.88 68.87 65.88 63.77 62.19 60.64 58.9 57.15 55.77 53.66 51.44 48.14 42.92 34.63 40.17 42.5 43.3 43.27 42.92 43.24 44.28 45.63 46.71 47.42 49.64 52.46 55.18 56.38 56.21 53.68 53.54 56.06 56.7 54.83 54.25 57.73 59.44 60.53 61.69 62.26 61.44 61.67 54.43 48.12 47.25 46.89 45.13 42.97 42.89 43.81 48.46 44.18 41.05 41.83 36.57 31.62 27.82 28.71 34.78 39.87 36.57 30.88 31.5 30.53 36.89 44.44 47.88 47.06 47.32 48.55 49.59 49.24 47.1 51.1 59.48 66.59 69.48 72.0 70.71 54.71 59.04 75.9 81.75 82.33 82.71 86.65 88.83 91.42 92.36 93.01 94.03 94.86 94.47 93.65 93.73 92.06 93.61 99.12 101.69 103.6 104.09 102.8 100.43 99.03 99.6 101.02 104.29 108.16 110.68 112.0 111.57
82.67 85.51 95.01 102.11 106.29 110.19 112.53 113.07 114.18 115.0 116.17 115.18 107.85 98.57 94.85 100.89 114.39 123.59 146.02 143.06 138.87 133.04 125.59 114.17 106.17 98.13 90.85 83.08 77.66 72.7 68.5 63.5 61.41 60.38 59.82 58.44 57.23 56.54 55.55 54.37 51.9 47.06 42.4 33.18 28.2 36.82 39.35 41.2 40.97 41.48 42.35 42.16 41.61 40.75 41.0 46.31 47.57 48.43 51.04 50.25 50.22 51.22 53.49 52.2 50.93 53.85 56.11 58.71 59.25 59.23 56.52 52.95 49.54 42.79 43.3 42.12 41.5 39.82 40.44 40.69 38.95 36.66 34.57 30.26 20.45 19.42 19.58 21.73 26.74 26.15 24.53 24.04 27.73 26.96 30.23 35.02 39.67 39.31 39.34 43.07 43.21 42.1 44.5 48.14 52.87 62.05 64.4 66.09 67.72 60.06 73.51 74.04 76.85 77.68 78.32 81.16 83.88 85.64 87.03 88.68 89.7 91.1 90.91 90.86 90.27 91.03 89.49 94.83 96.23 96.35 96.97 95.5 93.18 92.29 92.3 92.99 97.78 103.9 108.28 107.68 107.0
84.3 83.86 86.5 90.68 95.16 100.54 105.88 110.89 115.03 116.34 117.0 115.55 108.65 102.34 98.76 109.1 116.89 131.08 130.47 127.74 124.02 118.82 112.2 102.23 95.31 88.31 81.77 75.23 70.52 66.52 62.65 58.82 57.72 57.29 56.95 55.99 56.0 56.01 54.71 52.95 48.7 41.43 36.87 32.66 25.77 26.32 29.21 33.7 35.56 39.52 40.3 38.71 37.39 35.42 35.41 39.82 41.69 42.93 43.17 45.99 46.09 45.89 47.34 48.74 47.27 49.8 51.11 56.05 53.68 52.22 50.88 46.39 43.16 41.37 35.11 32.64 38.08 38.66 38.77 36.99 33.11 28.26 27.6 19.02 14.43 13.55 14.58 18.29 19.47 19.68 19.63 24.75 24.18 24.45 24.76 27.27 30.6 29.63 30.14 34.64 36.69 39.95 41.76 42.34 45.17 53.67 55.07 58.32 55.24 56.39 67.51 71.22 74.87 75.55 73.76 75.65 78.32 81.18 83.7 85.15 86.63 87.36 88.31 88.7 89.33 90.19 91.29 93.1 92.2 92.92 91.24 90.9 87.92 85.32 83.36 82.96 89.75 99.37 102.98 103.51 100.28
87.88 86.82 86.26 88.06 90.05 94.05 100.48 106.74 112.48 115.1 115.73 115.24 112.55 109.92 110.6 115.15 116.54 117.03 116.4 113.95 110.47 105.91 100.18 91.65 85.47 79.65 73.93 68.22 64.29 60.79 57.61 54.72 54.34 54.09 53.76 53.21 53.49 53.91 52.45 44.24 34.51 32.35 25.01 28.54 31.27 34.61 29.59 20.41 30.98 37.27 37.35 34.72 32.86 31.97 32.12 34.77 37.72 38.44 38.23 37.59 38.55 40.66 40.91 43.0 43.94 45.9 46.23 46.73 48.61 45.74 45.76 41.31 38.17 36.16 34.29 28.75 32.51 34.04 32.8 32.24 24.43 21.53 14.47 9.18 nan nan nan 11.34 13.52 12.76 14.63 17.34 15.18 19.03 20.6 24.27 24.68 25.85 29.07 29.83 32.02 34.61 34.26 39.13 42.12 44.0 42.48 53.21 55.12 57.82 63.07 66.82 70.43 72.61 71.17 70.79 73.13 75.61 78.48 81.1 83.71 84.76 85.38 86.72 87.71 88.93 90.96 91.52 89.77 89.51 87.61 86.07 83.6 81.01 78.28 83.4 89.0 94.21 97.75 99.03 100.91
91.3 89.58 88.56 88.89 91.93 94.63 99.45 104.38 108.94 110.64 110.85 109.94 109.68 109.63 110.26 110.42 104.03 104.22 103.62 101.43 98.26 94.46 89.4 82.28 76.97 71.73 66.9 61.98 58.72 55.71 52.96 51.22 50.9 50.4 49.61 49.24 49.59 48.0 39.01 26.19 21.11 23.47 23.41 29.22 30.38 30.3 23.32 20.19 34.76 30.22 29.89 28.04 28.11 28.31 28.35 30.2 34.02 35.26 35.31 34.94 35.33 35.93 36.69 38.19 40.51 38.3 37.63 36.72 41.48 42.78 40.52 35.94 33.85 30.99 31.16 26.64 25.99 26.01 24.2 22.98 17.75 12.09 7.18 nan nan nan nan 4.2 nan nan nan nan 10.73 15.8 16.56 17.5 19.49 21.78 22.8 23.91 24.31 25.71 27.2 30.44 38.41 37.05 38.37 38.75 47.25 52.44 56.28 60.63 63.16 65.66 64.86 65.95 68.02 70.44 73.33 76.0 79.57 81.43 82.91 84.5 86.13 87.28 88.29 88.63 86.69 86.36 87.34 84.91 81.65 81.53 80.74 81.87 86.91 91.03 93.02 94.83 95.8
95.99 94.16 91.61 91.99 102.79 100.45 103.01 105.58 108.86 109.82 108.21 105.5 100.63 99.23 103.76 88.86 89.65 90.08 89.45 87.61 84.93 81.6 77.82 72.29 67.75 63.41 59.01 54.97 52.58 50.44 47.49 45.45 45.22 43.68 43.14 42.9 43.72 39.79 32.77 29.1 23.12 20.16 24.79 30.13 31.48 26.37 18.71 21.41 26.12 24.21 24.26 24.74 24.79 24.83 25.34 26.9 29.65 31.1 32.3 32.98 32.42 33.12 34.42 32.56 32.1 32.24 33.12 32.21 34.09 35.95 35.94 32.74 29.35 25.74 23.45 20.27 15.49 16.5 19.87 16.3 8.54 4.19 nan nan nan nan nan nan nan nan nan nan nan 11.12 15.31 15.28 16.06 17.17 14.92 16.11 19.34 14.87 20.5 28.43 34.63 33.4 25.21 27.67 42.29 48.23 49.27 52.5 56.87 59.61 60.09 61.75 63.46 65.77 68.58 71.23 75.78 78.47 80.43 82.86 84.97 85.35 86.25 85.99 85.71 86.31 86.44 84.48 81.53 80.95 81.87 81.96 84.02 86.66 88.52 88.44 87.18
100.0 100.01 99.62 99.82 108.39 108.26 108.11 109.37 109.93 109.88 106.58 100.73 82.51 90.99 77.28 78.39 79.15 79.37 79.1 77.81 75.51 72.78 69.51 64.67 60.8 57.04 53.38 49.72 47.78 45.77 42.26 35.72 36.48 35.07 37.71 37.46 38.59 38.32 31.8 27.7 25.43 20.43 27.7 26.69 25.86 20.98 13.33 11.64 16.16 18.76 17.57 20.62 20.87 20.8 21.74 24.39 25.76 27.95 30.43 30.78 29.99 29.42 29.28 28.55 27.94 27.83 24.79 24.31 23.61 28.69 28.47 26.5 21.8 19.17 13.79 8.92 7.19 nan 2.0 1.13 1.16 -0.0 nan nan nan nan nan nan nan nan nan nan nan 6.92 10.22 7.31 10.7 13.1 16.16 15.52 13.8 15.75 19.59 21.41 29.54 29.84 22.14 27.96 40.46 38.72 40.55 44.17 48.9 52.19 55.28 57.25 58.64 60.64 63.4 66.21 72.33 75.72 77.46 81.14 83.75 84.05 84.02 83.8 83.63 84.1 83.75 82.51 81.64 81.12 80.94 81.05 82.1 84.34 82.46 80.46 79.88
104.74 105.01 105.05 107.23 105.76 103.61 109.9 111.82 104.26 99.84 96.15 81.16 66.91 82.03 68.09 68.86 68.8 69.33 69.85 69.13 67.12 64.77 62.45 57.78 54.02 51.53 48.25 44.14 42.46 41.53 34.3 25.31 29.64 31.21 33.81 34.57 32.87 31.47 28.49 25.81 24.82 25.14 25.24 20.21 17.37 10.83 7.38 8.8 nan nan nan nan nan 10.0 17.53 21.45 23.04 25.32 27.05 27.13 27.27 26.41 25.92 25.7 25.96 26.53 25.77 25.16 20.44 18.49 18.86 19.29 15.64 8.16 5.16 nan nan nan nan nan nan nan nan nan nan nan nan nan nan nan nan nan nan 3.65 nan 0.81 nan 8.76 13.43 12.67 10.46 11.49 15.81 19.34 23.58 27.25 26.47 30.38 32.04 31.32 38.79 41.56 45.37 47.31 50.22 53.68 55.45 57.34 60.13 64.57 70.31 74.53 75.3 79.12 84.58 83.13 82.33 82.13 82.75 82.57 82.58 82.11 81.65 81.44 81.15 81.26 81.59 81.2 80.32 77.49 78.44
103.34 106.09 109.81 104.77 100.35 105.08 99.26 97.32 84.88 84.58 83.23 63.77 59.72 60.1 60.57 59.39 58.15 59.12 60.98 61.25 59.63 57.75 56.11 50.86 47.11 46.3 43.97 39.27 36.32 35.31 32.04 29.47 28.53 21.08 19.9 27.14 25.81 27.12 23.67 19.69 19.88 19.8 15.95 13.38 9.41 5.24 4.17 nan nan nan nan nan nan -1.32 3.08 17.08 22.33 25.87 27.6 28.09 25.42 22.91 22.82 22.83 22.87 22.95 23.31 24.22 22.57 15.51 15.0 14.23 5.68 nan nan nan nan nan nan nan nan nan nan nan nan nan nan nan nan nan nan nan nan nan nan nan nan nan 9.77 9.59 10.49 14.93 14.89 15.27 19.36 22.66 25.22 27.64 26.7 28.83 33.43 39.61 43.35 45.12 46.48 50.28 51.91 55.26 57.12 61.79 68.75 73.05 74.71 76.25 80.79 80.75 80.63 81.37 81.45 81.35 81.63 81.78 82.09 81.49 80.63 81.24 81.21 80.17 79.28 78.06 79.13
100.36 100.47 104.7 108.06 108.57 91.05 84.88 78.2 69.25 63.13 69.67 60.95 54.28 54.41 54.47 49.92 46.87 49.16 53.26 54.37 52.67 51.33 50.65 45.35 41.52 42.01 40.64 35.65 34.54 34.3 30.41 22.1 18.46 19.8 20.5 20.38 19.6 19.22 14.74 15.11 13.57 11.11 7.84 4.73 nan 3.15 nan nan nan nan nan nan nan -4.46 7.33 19.94 23.52 24.8 25.89 27.13 26.72 25.16 22.82 22.82 22.82 22.82 19.52 18.69 18.57 16.82 14.98 2.09 nan nan nan nan nan nan nan nan nan nan nan nan nan nan nan nan nan nan nan nan nan nan nan nan nan nan 2.99 5.37 7.58 6.04 7.85 11.94 16.41 18.21 20.97 25.15 25.35 25.36 27.21 32.8 40.43 42.29 45.14 47.61 50.25 52.6 55.23 58.46 66.57 71.93 74.54 75.25 75.42 76.43 80.25 80.28 80.51 80.42 80.73 81.43 82.2 81.66 81.2 81.4 81.05 80.32 79.95 78.11 78.54
108.58 97.41 99.05 99.63 86.19 72.89 62.4 59.98 62.11 63.2 62.09 60.86 45.42 47.4 46.4 37.91 33.65 39.23 45.28 45.79 43.54 41.64 41.85 37.91 36.68 34.63 32.18 27.24 26.39 21.73 18.02 13.31 10.65 11.97 10.6 10.69 6.89 10.93 4.22 5.15 4.64 5.09 nan nan nan nan nan nan nan nan nan nan nan -0.27 7.88 14.92 22.36 22.8 23.02 22.71 22.53 22.89 18.6 18.7 18.22 16.58 -2.22 -4.32 9.73 11.94 1.99 nan nan nan nan nan nan nan nan nan nan nan nan nan nan nan nan nan nan nan nan nan nan nan nan nan nan 1.15 -0.12 1.07 2.21 2.53 6.56 10.12 13.7 15.49 20.35 23.0 24.17 25.1 26.28 31.34 37.35 40.19 42.23 44.88 47.8 50.09 52.64 55.16 65.05 69.92 70.23 70.26 72.33 75.9 78.89 80.2 80.2 80.09 80.58 81.3 82.23 81.53 81.2 81.2 80.78 79.98 79.15 78.88 79.21
93.82 82.3 80.11 77.08 69.27 62.52 39.06 30.96 44.75 49.78 44.66 37.37 37.29 36.25 32.89 36.13 51.4 39.37 41.65 39.31 37.55 37.21 34.16 32.4 29.03 24.15 24.19 20.39 11.2 13.44 8.04 nan nan nan nan nan nan nan nan nan nan nan nan nan nan nan nan nan nan nan nan nan nan nan 1.81 8.72 14.87 17.12 -8.08 22.25 20.8 21.95 -22.85 12.12 -4.45 nan nan nan nan nan nan nan nan nan nan nan nan nan nan nan nan nan nan nan nan nan nan nan nan nan nan nan nan nan nan nan nan nan nan -3.52 -2.46 -0.62 3.02 6.46 10.21 12.66 14.82 16.41 18.2 19.77 21.41 24.26 27.09 33.65 38.98 39.89 42.86 45.18 48.64 51.06 57.32 56.8 60.55 66.31 70.13 70.24 72.88 74.7 79.64 81.12 79.52 80.13 80.46 80.3 80.11 80.19 79.78 79.2 78.19 78.39 80.43
79.9 75.64 72.75 69.17 64.97 63.57 56.38 46.16 36.12 36.74 31.52 30.8 30.29 24.67 39.75 73.02 93.96 34.74 36.35 34.52 34.59 32.82 27.29 24.7 23.22 19.71 14.29 6.34 nan 4.86 nan nan nan nan nan nan nan nan nan nan nan nan nan nan nan nan nan nan nan nan nan nan nan nan nan -4.63 nan 9.15 19.05 17.68 17.49 15.88 5.96 nan nan nan nan nan nan nan nan nan nan nan nan nan nan nan nan nan nan nan nan nan nan nan nan nan nan nan nan nan nan nan nan nan nan nan nan nan nan 5.22 6.47 1.99 8.32 10.43 10.65 11.57 14.45 16.36 16.14 18.2 21.65 26.43 34.04 38.19 39.7 42.43 45.49 48.83 49.12 54.14 59.17 65.89 66.51 66.59 69.73 71.1 75.8 77.64 77.37 77.83 78.73 78.82 78.82 78.81 78.84 78.22 77.88 78.25 79.09
72.31 69.94 69.0 63.59 59.8 56.25 49.5 42.6 31.83 25.48 27.53 26.36 26.24 29.99 94.65 103.03 59.44 30.7 31.74 29.06 28.37 26.28 21.61 19.53 18.89 10.2 6.91 nan nan nan nan nan nan nan nan nan nan nan nan nan nan nan nan nan nan nan nan nan nan nan nan nan nan nan -0.57 6.51 10.09 15.83 13.81 13.99 12.9 10.63 5.71 nan nan nan nan nan nan nan nan nan nan nan nan nan nan nan nan nan nan nan nan nan nan nan nan nan nan nan nan nan nan nan nan nan nan nan nan nan nan nan nan nan 5.72 5.53 5.56 10.6 nan 8.5 10.83 13.59 18.27 22.93 26.2 31.54 35.88 38.32 42.05 44.3 47.05 52.39 55.89 56.73 60.22 63.68 66.05 68.02 70.66 71.64 73.31 75.4 76.63 76.94 77.15 77.49 77.9 77.72 77.24 77.31 77.65
68.23 64.97 64.94 62.58 56.41 50.02 43.75 40.14 31.65 30.27 28.7 25.15 25.54 28.17 75.9 42.35 27.22 23.31 24.24 21.65 18.86 18.93 17.98 15.51 9.69 4.69 nan nan nan nan nan nan nan nan nan nan nan nan nan nan nan nan nan nan nan nan nan nan nan -3.75 0.7 10.36 12.78 14.64 15.32 13.81 3.4 8.57 7.98 5.54 4.35 0.28 -2.95 -4.46 nan nan nan nan nan nan nan nan nan nan nan nan nan nan nan nan nan nan nan nan nan nan nan nan nan nan nan nan nan nan nan nan nan nan nan nan nan nan nan -1.78 -1.37 nan nan nan nan nan nan 10.31 16.73 19.08 21.65 25.73 30.57 33.83 37.49 40.67 43.89 48.03 50.98 51.76 57.06 58.81 59.79 63.51 68.67 69.62 71.09 73.04 74.4 74.87 75.28 75.55 75.93 76.34 76.39 75.96 76.21
63.02 60.64 60.89 58.83 49.85 43.51 36.65 32.97 32.31 29.95 28.03 25.25 20.61 20.79 21.07 17.19 16.36 15.17 16.56 16.04 15.82 14.09 12.73 8.79 4.64 3.1 nan nan nan nan nan nan nan nan nan nan nan nan nan nan nan nan nan nan nan nan nan -3.21 -5.86 -2.26 14.83 7.77 5.78 6.38 4.97 1.21 3.04 -2.68 -4.37 -5.59 -4.49 nan nan nan nan nan nan nan nan nan nan nan nan nan nan nan nan nan nan nan nan nan nan nan nan nan nan nan nan nan nan nan nan nan nan nan nan nan nan nan nan nan -2.03 nan 0.49 -0.58 nan nan nan nan nan nan 13.84 16.4 19.26 22.16 26.78 30.37 33.41 36.3 40.49 42.82 45.08 47.87 51.12 53.05 55.74 59.09 64.78 67.3 69.04 70.65 72.0 72.63 73.12 73.48 73.73 73.77 73.8 74.12 74.38
58.28 56.95 54.6 53.49 44.71 34.98 29.67 25.17 23.12 25.07 23.68 21.82 18.31 15.87 9.79 4.48 -13.28 10.06 12.31 12.02 10.79 10.03 7.53 5.2 nan nan nan nan nan nan nan nan nan nan nan nan nan nan nan nan nan nan nan nan nan -3.56 -3.68 10.98 -3.49 14.83 1.64 1.8 3.88 1.68 1.51 1.18 0.86 1.72 -0.04 0.88 nan nan nan nan nan nan nan nan nan nan nan nan nan nan nan nan nan nan nan nan nan nan nan nan nan nan nan nan nan nan nan nan nan nan nan nan nan nan nan nan nan nan nan nan -0.75 -0.7 -1.56 nan nan nan nan nan 11.77 15.28 17.45 20.08 25.38 28.29 30.14 32.71 35.61 38.87 40.46 41.7 43.47 49.13 51.97 55.55 61.3 64.28 66.4 68.02 69.31 69.93 70.51 70.97 71.1 71.06 70.95 70.99 71.32
52.99 49.03 43.92 38.73 34.12 26.02 23.13 19.44 12.45 12.63 12.97 nan 12.66 10.62 4.66 nan nan -8.72 9.22 9.52 8.37 4.55 2.81 nan nan nan nan nan nan nan nan nan nan nan nan nan nan nan nan nan nan nan nan -6.56 -6.39 -3.28 -3.17 -3.16 -3.23 14.23 1.5 1.46 2.6 1.49 1.52 0.39 -4.07 -3.99 -0.53 -0.21 nan nan nan nan nan nan nan nan nan nan nan nan nan nan nan nan nan nan nan nan nan nan nan nan nan nan nan nan nan nan nan nan nan nan nan nan nan nan nan nan nan -2.2 2.52 nan -0.43 1.62 nan nan nan nan nan nan 10.49 14.35 16.19 18.86 23.81 26.94 28.84 29.88 32.17 34.67 36.17 38.08 41.74 46.72 49.9 52.59 57.24 60.21 62.64 64.34 65.61 66.35 66.93 67.62 67.62 66.93 66.61 66.7 67.44
41.57 36.74 32.42 24.64 19.84 15.79 16.44 15.67 10.82 10.08 7.27 nan 5.69 nan nan nan nan nan nan nan nan nan nan nan nan nan nan nan nan nan nan nan nan nan nan nan nan nan nan nan -5.65 -4.63 nan -4.54 -3.12 -3.43 -3.29 -3.48 -0.63 10.47 1.41 1.43 1.33 1.37 0.74 -0.47 nan nan -0.54 1.61 nan nan -1.44 -1.25 nan nan nan nan nan nan nan nan nan nan nan nan nan nan nan nan nan nan nan nan nan nan nan nan nan nan nan nan nan nan nan nan nan nan nan nan nan nan -1.63 2.02 -0.3 1.8 nan nan nan nan nan nan 11.4 14.55 16.05 18.17 22.35 25.99 27.91 29.15 30.49 32.59 34.53 35.59 39.11 44.05 48.53 51.1 54.19 57.05 59.25 61.14 62.23 62.91 63.57 64.13 64.01 63.42 63.15 63.18 63.92
36.07 27.33 21.64 14.69 5.8 nan 10.25 9.26 9.28 7.18 nan nan -2.83 -2.01 nan nan nan nan nan nan nan nan nan nan nan nan nan nan nan nan nan nan nan nan nan nan nan nan nan nan -1.43 -4.92 -0.89 -1.78 -2.11 -3.44 -3.74 6.83 -0.61 2.67 4.1 1.47 1.37 0.62 0.16 -5.66 nan -0.71 0.2 nan nan -1.07 -3.49 -1.77 nan nan nan nan nan nan nan nan nan nan nan nan nan nan nan nan nan nan nan nan nan nan nan nan nan nan nan nan nan nan nan nan nan nan nan nan nan nan -0.32 -0.51 -0.86 1.32 1.64 5.27 -0.93 nan 2.87 9.48 11.81 15.31 16.24 18.13 21.78 25.22 27.22 28.56 30.2 30.78 32.45 34.54 36.55 40.97 45.89 49.69 51.71 53.61 55.92 57.5 58.39 59.26 60.07 60.41 60.18 59.48 59.41 59.96 60.7
25.98 19.04 10.92 5.52 nan nan nan nan nan nan nan nan nan nan nan nan nan nan nan nan nan nan nan nan nan nan nan nan nan nan nan nan nan nan nan nan nan nan nan nan nan nan -4.74 -0.79 -5.25 -2.56 -3.2 0.98 4.38 1.67 7.46 2.85 1.32 0.13 -2.23 nan -1.11 -1.15 -0.37 -0.23 -0.03 -0.03 nan nan -4.25 nan nan nan nan nan nan nan nan nan nan nan nan nan nan nan nan nan nan nan nan nan nan nan nan nan nan nan nan nan nan nan nan -0.69 -0.29 -0.87 nan -1.23 -0.57 -0.51 0.54 4.2 5.45 4.76 0.18 2.97 5.97 8.6 12.34 15.03 15.61 17.23 20.85 25.26 26.51 28.33 30.2 30.22 30.66 32.46 34.6 37.86 41.96 46.73 50.27 51.14 52.85 54.17 54.55 55.38 56.19 56.46 56.16 55.88 56.26 56.87 57.33
14.78 8.96 3.29 nan nan nan nan nan nan nan nan nan nan nan nan nan nan nan nan nan nan nan nan nan nan nan nan nan nan nan nan nan nan nan nan nan nan nan nan nan nan nan nan -2.94 -1.87 -1.72 -1.79 -2.99 -6.66 -1.12 -2.24 2.3 1.52 nan nan nan -2.44 -1.07 -1.63 nan nan nan nan nan -6.34 nan nan nan nan nan nan nan nan nan nan nan nan nan nan nan nan nan nan nan nan nan nan nan nan nan nan nan nan nan nan nan nan -2.14 -1.14 1.72 nan -0.25 0.05 -0.22 2.32 0.17 5.34 -1.5 -3.36 2.6 5.85 8.65 11.97 13.84 14.72 15.37 20.49 24.37 25.69 28.05 29.9 29.52 29.57 30.4 33.63 35.9 37.92 42.47 49.32 49.92 50.53 50.78 50.89 51.98 52.4 52.84 52.2 52.53 52.89 53.34 53.47
9.42 nan nan nan nan nan nan nan nan nan nan nan nan nan nan nan nan nan nan nan nan nan nan nan nan nan nan nan nan nan nan nan nan nan nan nan nan nan nan nan nan nan nan nan -3.19 -4.07 -5.31 -2.54 -2.29 -2.54 0.56 1.64 1.39 1.11 -0.75 nan nan -5.54 nan nan nan nan nan nan -4.0 nan nan nan nan nan nan nan nan nan nan nan nan nan nan nan nan nan nan nan nan nan nan nan nan nan nan nan nan nan nan nan -2.12 -0.42 -0.33 -1.21 1.35 0.71 -0.41 0.03 -0.25 1.74 5.36 -2.22 nan 1.38 5.3 8.49 11.23 12.36 12.97 14.03 18.84 21.68 24.36 26.05 26.96 26.68 26.64 26.81 29.87 33.79 35.37 38.56 43.9 46.28 46.49 45.82 45.36 47.76 48.84 49.95 48.66 48.48 47.48 46.68 46.8
nan nan nan nan nan nan nan nan nan nan nan nan nan nan nan nan nan nan nan nan nan nan nan nan nan nan nan nan nan nan nan nan nan nan nan nan nan nan nan nan -5.61 nan nan nan -5.38 -43.83 -33.3 -45.66 -18.38 -1.04 3.04 0.57 -0.23 -3.54 nan nan nan nan nan nan nan nan nan nan nan -5.25 nan nan nan nan nan nan nan nan nan nan nan nan nan nan nan nan nan nan nan nan nan nan nan nan nan nan nan nan nan nan nan -1.29 nan -1.42 -0.91 -0.32 nan -0.11 2.17 3.1 4.22 nan nan -6.01 2.9 6.91 9.96 9.76 9.66 9.28 9.28 12.57 15.49 14.26 17.59 19.47 19.29 20.74 23.0 23.48 23.16 20.36 22.32 28.03 33.57 35.33 37.49 39.63 42.56 42.53 42.07 42.42 39.67 38.05 38.14
nan nan nan nan nan nan nan nan nan nan nan nan nan nan nan nan nan nan nan nan nan nan nan nan nan nan nan nan nan nan nan nan nan nan nan nan nan nan nan nan -5.71 -3.44 -5.18 -4.79 -3.57 -30.44 -14.45 -5.02 -0.17 1.71 -8.21 -1.62 nan nan nan nan nan nan nan nan nan nan nan nan nan nan nan nan nan nan nan nan nan nan nan nan nan nan nan nan nan nan nan nan nan nan nan nan nan nan nan nan nan nan nan nan nan nan nan nan nan nan nan -1.05 1.14 0.61 2.83 nan nan nan 1.49 4.41 7.67 nan nan 5.56 -6.04 -15.66 2.42 7.68 -3.24 12.88 13.59 12.69 15.69 14.36 13.96 10.04 13.34 22.46 26.73 30.39 28.16 33.41 33.91 34.97 36.99 34.11 34.36 34.46 34.43
nan nan nan nan nan nan nan nan nan nan nan nan nan nan nan nan nan nan nan nan nan nan nan nan nan nan nan nan nan nan nan nan nan nan nan nan nan nan nan nan nan nan -4.39 nan -3.77 -8.83 -2.3 -3.18 7.61 0.01 -4.89 nan nan nan nan nan nan nan nan nan nan nan nan nan nan nan nan nan nan nan nan nan nan nan nan nan nan nan nan nan nan nan nan nan nan nan nan nan nan nan nan nan nan nan nan nan nan nan nan nan nan nan nan nan -0.12 0.51 2.42 -2.48 nan nan nan nan nan nan nan nan nan nan nan nan nan 2.52 7.05 nan nan nan nan nan 12.14 14.05 20.39 23.07 21.21 22.88 26.8 28.94 28.88 28.57 28.21 29.09 29.58
nan nan nan nan nan nan nan nan nan nan nan nan nan nan nan nan nan nan nan nan nan nan nan nan nan nan nan nan nan nan nan nan nan nan nan nan nan nan nan nan nan nan nan nan nan -2.84 -4.85 -5.84 1.48 nan nan nan nan -4.42 -2.26 -2.47 -3.16 -5.39 nan nan nan nan nan nan nan nan nan nan nan nan nan nan nan nan nan nan nan nan nan nan nan nan nan nan nan nan nan nan nan nan nan nan nan nan nan nan nan nan nan nan nan nan -1.6 -1.47 -1.0 2.17 -0.03 nan nan nan nan nan nan nan nan nan nan nan nan nan nan nan nan nan nan nan nan nan 9.27 10.18 nan nan 0.25 16.11 17.36 22.74 24.12 22.43 21.78 24.1 26.42
nan nan nan nan nan nan nan nan nan nan nan nan nan nan nan nan nan nan nan nan nan nan nan nan nan nan nan nan nan nan nan nan nan nan nan nan nan nan nan nan nan nan nan nan nan nan nan nan -3.57 -3.78 -5.29 -1.5 -2.79 -0.87 -4.03 -4.85 nan nan nan nan nan nan nan nan nan nan nan nan nan nan nan nan nan nan nan nan nan nan nan nan nan nan nan nan nan nan nan nan nan nan nan nan nan nan nan nan nan nan nan nan nan nan nan -1.0 nan 3.0 -0.24 -2.32 nan nan nan nan nan nan nan nan nan nan nan nan nan nan nan nan nan nan nan nan 9.07 1.49 nan nan nan nan nan -8.77 11.15 3.1 7.23 14.25 18.54
nan nan nan nan nan nan nan nan nan nan nan nan nan nan nan nan nan nan nan nan nan nan nan nan nan nan nan nan nan nan nan nan nan nan nan nan nan nan nan nan nan nan nan nan nan nan nan -3.46 -6.09 0.55 -0.12 -5.68 -4.54 nan nan nan nan nan nan nan nan nan nan nan nan nan nan nan nan nan nan nan nan nan nan nan nan nan nan nan nan nan nan nan nan nan nan nan nan nan nan nan nan nan nan nan nan nan nan nan nan nan nan nan -1.72 3.92 -1.09 nan nan nan nan nan nan nan nan nan nan nan nan nan nan nan nan nan nan nan nan nan nan 0.05 nan nan nan nan nan nan nan nan nan nan 11.92
nan nan nan nan nan nan nan nan nan nan nan nan nan nan nan nan nan nan nan nan nan nan nan nan nan nan nan nan nan nan nan nan nan nan nan nan nan nan nan nan nan nan nan -5.31 -5.36 nan -4.34 -3.59 -0.01 -3.44 nan nan nan nan nan nan nan nan nan nan nan nan nan nan nan nan nan nan nan nan nan nan nan nan nan nan nan nan nan nan nan nan nan nan nan nan nan nan nan nan nan nan nan nan nan nan nan nan nan nan nan nan nan nan nan 1.95 -2.3 nan nan nan nan nan nan nan nan nan nan nan nan nan nan nan nan nan nan nan nan nan nan nan nan nan nan nan nan nan nan nan nan nan nan
nan nan nan nan nan nan nan nan nan nan nan nan nan nan nan nan nan nan nan nan nan nan nan nan nan nan nan nan nan nan nan nan nan nan nan nan nan nan nan nan nan nan nan -4.67 nan nan -5.46 nan nan nan nan nan nan nan nan nan nan nan nan nan nan nan nan nan nan nan nan nan nan nan nan nan nan nan nan nan nan nan nan nan nan nan nan nan nan nan nan nan nan nan nan nan nan nan nan nan nan nan nan nan nan nan nan nan nan 2.16 2.98 -1.89 nan nan nan nan nan nan nan nan nan nan nan nan nan nan nan nan nan nan nan nan nan nan nan nan nan nan nan nan nan nan nan nan nan
nan nan nan nan nan nan nan nan nan nan nan nan nan nan nan nan nan nan nan nan nan nan nan nan nan nan nan nan nan nan nan nan nan nan nan nan nan nan nan nan nan nan -3.15 nan nan nan nan nan nan nan nan nan nan nan nan nan nan nan nan nan nan nan nan nan nan nan nan nan nan nan nan nan nan nan nan nan nan nan nan nan nan nan nan nan nan nan nan nan nan nan nan nan nan nan nan nan nan nan nan nan nan nan nan nan -1.51 -1.34 -1.56 2.29 -0.14 nan nan nan nan nan nan nan nan nan nan nan nan nan nan nan nan nan nan nan nan nan nan nan nan nan nan nan nan nan nan nan nan
nan nan nan nan nan nan nan nan nan nan nan nan nan nan nan nan nan nan nan nan nan nan nan nan nan nan nan nan nan nan nan nan nan nan nan nan nan nan nan nan nan nan nan nan nan nan nan nan nan nan nan nan nan nan nan nan nan nan nan nan nan nan nan nan nan nan nan nan nan nan nan nan nan nan nan nan nan nan nan nan nan nan nan nan nan nan nan nan nan nan nan nan nan nan nan nan nan nan nan nan nan nan -2.22 nan -0.73 nan -1.21 -1.1 -1.6 -1.13 nan nan nan nan nan nan nan nan nan nan nan nan nan nan nan nan nan nan nan nan nan nan nan nan nan nan nan nan nan nan nan
nan nan nan nan nan nan nan nan nan nan nan nan nan nan nan nan nan nan nan nan nan nan nan nan nan nan nan nan nan nan nan nan nan nan nan nan nan nan nan nan nan nan nan nan nan nan nan nan nan nan nan nan nan nan nan nan nan nan nan nan nan nan nan nan nan nan nan nan nan nan nan nan nan nan nan nan nan nan nan nan nan nan nan nan nan nan nan nan nan nan nan nan nan nan nan nan nan nan nan nan nan nan nan -1.09 nan nan nan -0.82 -1.21 -0.96 0.13 nan nan nan nan nan nan nan nan nan nan nan nan nan nan nan nan nan nan nan nan nan nan nan nan nan nan nan nan nan nan
nan nan nan nan nan nan nan nan nan nan nan nan nan nan nan nan nan nan nan nan nan nan nan nan nan nan nan nan nan nan nan nan nan nan nan nan nan nan nan nan nan nan nan nan nan nan nan nan nan nan nan nan nan nan nan nan nan nan nan nan nan nan nan nan nan nan nan nan nan nan nan nan nan nan nan nan nan nan nan nan nan nan nan nan nan nan nan nan nan nan nan nan nan nan nan nan nan nan nan nan nan -1.3 -0.46 -1.91 nan nan nan nan nan -0.75 -0.96 nan nan nan nan nan nan nan nan nan nan nan nan nan nan nan nan nan nan nan nan nan nan nan nan nan nan nan nan nan nan
